-23.03791926540546,-17.16726454680584,251.11831354177332
8.46402470197901,20.459886602551045,138.0729335236684
18.584426461317175,33.19266751482064,140.63963250670744
9.09942091199302,14.270501303263838,129.98880948011876
20.603814034040088,-3.1017574050444905,228.2775353224539
-21.68115316645941,-8.150854018021482,208.56461404659123
-0.21644397162743165,27.90990909865493,-48.367628309885305
-18.282639490005977,0.884550082103967,467.539013874838
-2.089849181594741,-5.936345213222177,124.39074586529682
-35.78464109697109,39.46981764176675,467.3622870470063
-7.167287375994781,7.22671780701885,83.32991444513561
24.99778864793768,-36.28992191839468,231.3712761588464
14.339082145713087,23.50691768886663,214.7761572914059
-27.309230217703654,0.36906148637946457,477.7738775829881
-43.827230383027285,-0.7061702321153682,93.70726415555214
-8.307513192657296,-36.81100069118434,252.85590771201413
38.07404812436539,4.724118089693856,-6.773627320479392
-6.048460285030153,-11.264703806346736,7.8472801416729965
10.933994509353669,2.6526398184552957,77.26505688180372
-22.309121621525712,18.807666529985493,537.0506454520616
14.440221541599726,4.187327130618534,-128.99999222773778
20.351290659876685,42.1220550531489,296.9121108303972
-5.507227024742637,-14.88252953069823,-34.66108050838997
-17.16747572890332,34.66345429402174,332.9246997529816
2.1638363546098267,-28.374470896767676,-66.63659821796472
-10.439075447567173,7.426084164166489,-126.36243813637034
-14.694422792287698,-5.94845107382098,11.308167272952517
-29.46071287645287,-21.88186711030759,4.252144707291066
6.099593270962792,-34.17610517154102,267.53330045367994
-17.01836815206735,5.255079347450807,-58.47723170767159
21.13076850018396,-32.410494251635946,9.27299996343261
-8.755464415116052,-21.538331088874124,209.11462134328747
27.236764846196703,15.959577124967083,84.66758020158665
-16.74748361720535,-44.77547512069628,143.13003216602374
13.37368640301941,40.17564170180314,-64.41324904841218
17.132162676828774,-2.9392105324662743,334.09546395294507
2.819034674678012,25.774522342791137,-232.47082657733978
4.4633391680969465,-7.141456041525168,78.8668526688254
0.932677240251192,-0.13249822394811842,187.0323916749891
-12.865734391641304,-15.118351678905883,-231.7713695638684
12.399039759184111,12.137672012622957,-280.5453271789818
16.679883918954197,-4.906733060624287,248.28590912655804
3.7916022631204047,0.9948759323953578,151.80660849873928
-7.188298720377659,-35.41141402368513,29.806456336503047
-21.63634804693187,-4.7668070204519015,101.34197939605276
30.16749753333856,-5.855870273297617,429.3157616684501
-30.883485191527157,-1.8951646903233696,568.8775788009375
7.749653942797624,-2.1204624522364157,177.04839610091062
-28.64791319543384,20.79114557898179,-11.219926417107501
-47.255534379244075,40.19993032889886,326.8790029037998
6.953062474892748,-23.634583654769834,179.8736756771286
6.075452744635708,8.46190105380237,116.89778848672057
-12.543271233699397,-3.1768156032031403,231.05580762762997
20.09361204654567,0.6081726730723002,18.51290561611762
24.18057888154412,-19.40934132633004,123.11191750154256
0.0763622296859249,8.818169029176989,473.8060250366936
-12.739011243509268,-3.0915099610478403,63.51628912230024
4.629326066291677,30.02225070044577,-211.536915081759
-41.755769648124556,-4.199168907323006,-16.693019300936072
3.3561878331096766,1.0628784280703043,73.31406327757198
-13.881210059135187,1.8105785171077646,-12.203070682488843
1.6771029534642603,-7.252975091693701,64.00425916795524
12.633888107437418,-21.34058901207301,204.86897451085662
-19.904898006169432,36.94003759697629,-99.17544950260734
10.991976817033386,31.261356293602688,-217.07082166866905
-20.762824039775897,-4.333885121048264,569.1591435805635
32.64222232111068,-21.367976066486033,-306.94516390940345
1.788330163758729,4.87225154694206,139.93725676140565
-2.362172101330136,4.101274622046721,210.15952411552877
-32.05895074992963,-40.373162960936554,-11.48134170064543
36.53113435309877,-2.004528387543444,258.02490934989
4.854846364949622,-12.665781925481294,346.0030811649603
-15.48145859204961,23.46947733981281,639.2847371456508
32.233396028089835,-10.364365050495202,-68.73976254047642
34.81724766804038,15.737309396271959,80.38607258912192
-9.40681071885986,29.431488315974768,358.1187318653922
12.002328588075546,2.913867304389176,-26.95338746521874
28.796786932606757,-9.560138588193386,308.80872393130835
7.3929442955042255,5.752088708080847,104.62642789718223
-18.4340863605724,12.82206539269902,91.41172897248826
4.622124216119968,-35.87700652557349,52.05878340681154
-15.058686110340453,46.31888280404476,-4.6469096766585665
-40.248887236285135,-7.783928529564463,-166.62472211867214
27.894489346446537,8.52033105595117,-27.001910453150018
-18.03207824907958,-1.9666394166130026,230.82593306196395
-7.157038853158239,21.23567517960124,241.936133622646
3.202843974562566,-1.641846979075965,-150.19947873469727
-23.18541267381677,-31.735710044123742,201.2740962027487
-19.089642723147605,11.739646117803943,279.5500112850618
-1.9125837330976536,-0.13397531373731758,157.29831864198414
-28.143532461349942,-13.412186927696986,-73.44227077863056
-37.805252250563754,-20.690925168131574,-223.0904238126124
30.22177175951149,-15.830364661437002,7.113830495862629
5.434059022864237,-20.863203865338807,389.8973240092025
3.0070097625754135,19.385297672681276,-93.09145869459186
-0.6287576033737757,31.15661191933762,261.39115160412075
-26.098470405120846,3.047474944275037,-366.54622868992607
-8.00233146640772,33.09576374957215,-182.29900958532414
-5.287163492298973,-19.136125176498137,40.830444450816394
25.020356396694027,2.788355117191716,248.34208035718618
4.986258678394892,-4.20178830928114,97.17505501208674
-13.684765315927063,27.458190262130422,-347.673407786996
25.10260811790983,40.91458021874361,104.88886492902873
3.626136196012089,-4.131188099847734,59.845756774849704
-17.027801719642923,12.288317510284228,132.44279843755447
-22.263513352909175,-29.89593067446611,-23.199004765803366
6.703767525117431,8.896533329869682,-218.95929908435483
-25.773705925343805,-16.200787948465237,158.45076907283288
-1.4325331415298566,8.532134935499773,-16.112031111097707
-3.794371955055407,-9.911141805047926,483.6248547252104
9.196960489951248,15.10093343628717,-35.222867646063634
17.348658243511622,3.394291960770693,-178.7274321177503
21.90830463725359,24.459075460299296,-80.55557497956943
-48.959205787219695,13.333760660926913,-72.78039697974089
-7.751028628543724,-42.38864032987918,-203.82221436360072
-38.41764817571787,-16.8372805887128,281.39256966159
-6.915732328067142,-23.244322926524706,71.7202695616611
23.710149914206994,30.80855155327729,-15.52538767950351
4.590953227684874,-11.313184842403976,-89.81005438410142
21.484840595557134,4.324389426897957,161.89270667404656
40.63497443310429,-16.097763317391298,-118.43581854324731
32.338808145434356,-1.443330549153409,-61.959452569426674
-42.147371222209514,-20.30910552331061,-208.13133418148539
-24.20320133487998,-21.3447089907817,-37.640441013570666
-12.33065326262603,-19.61019752221444,83.29358888916123
43.987751098993925,-0.6467794843127221,-214.74236390699446
30.391690047610464,-25.34719926855542,13.268395449662208
1.346869554356809,57.021663472580045,71.96313830206964
4.454949390862415,-34.86474866637109,63.633608696484885
-12.615249548330096,12.547860172410616,106.21297422007834
24.711130097978646,-15.01762231312169,199.7011450427631
7.097604510472491,-34.837800211541634,-44.81288742829085
14.872522776900535,22.65945660487639,-3.9948151146327717
0.16150221959955832,6.335550026959751,183.05400612478311
17.624467326664025,-15.222363037714144,133.32170414810906
-2.229196131766148,-8.727953156203817,420.06161896448464
8.749436592681455,23.11933646836808,301.88948383123875
2.8982999974758847,-11.038644960874048,22.071859534952495
-10.763923906743884,3.9187717322886457,2.27102510883158
-3.707117743949601,57.80529394153021,181.82222515629144
41.51853176637806,13.426285266631886,93.8360181159015
13.009519424843054,7.253122824462976,113.32770983118634
21.063757013047308,-23.753624563412508,64.21538831908686
12.202895398856166,-14.747619557003805,346.52133481449073
-5.953223995777418,-10.726570721805704,-53.43749350082757
3.3931943931861137,-25.88467029525663,-144.3973676050343
29.38788690872643,-7.129999637786653,-175.2538352220202
-18.78933196206678,19.412061881583817,284.5295192863895
-28.887684790792125,22.627620844964316,240.51425328146456
5.155897745849186,1.038193309060933,144.14580443008865
-4.739549964089304,-4.6385613876861385,-65.92309697063425
-15.603758433611723,-4.671042633745092,377.72311136657714
-8.553657250544076,25.659204120084375,-212.03963529257595
28.670411803265935,-1.3138577719098963,379.7273542510436
32.557173877002725,-0.28608142365831035,248.47881740673853
38.958992446637765,8.833813430510196,202.93533956101845
-0.732175296102461,17.27397676914456,-138.07723083782105
28.39932306793596,-13.759125349520083,426.2564505657056
-13.076767949129955,-26.990545600625108,275.581196136836
35.663828596204276,-12.284397996662243,161.94822985486917
3.782889595862162,-40.251460662501856,66.82717727133736
-42.523183317969576,14.070742289438327,-45.43401654031038
4.857604942500883,-18.647863085226504,44.3593973615756
-22.716572287966788,37.1802188890953,144.75731803116014
5.7077508239888815,9.699633003457281,203.38181797341792
-4.354050422682279,21.304451694303232,-328.6003140442583
-8.499857554352426,-16.68102713628507,69.59900858572769
-11.890071135453454,16.61417629432584,8.769384311723215
10.578773137912972,17.02212557975551,22.03840817352942
-26.344332397274922,4.214162199447631,430.46281621280724
14.015966235592163,-4.898475661690254,37.003727747354866
16.45809583337613,-9.109349342053976,-352.61508801358275
47.52645610260548,-6.588480522615394,303.60405141319643
4.619431758676234,-6.847371534384528,205.16245848058963
-18.92740723871779,-14.244042370458345,246.00862065569194
10.725769646492637,-5.094662614828119,36.466847414786386
-5.57995421080706,4.910510437063134,325.65262228428475
-15.406102389847419,-21.182077230361955,13.294279309174954
-0.2929891524096814,4.193354575996802,283.6271081051306
-16.525293362367933,6.655609540717771,-44.232212628127854
-3.6367064544339893,-25.464395131500964,108.27675017148093
26.37327179929966,-8.232785342300783,-32.03670642486239
-26.538264999141067,2.3969433752060203,149.31252637074851
11.886616818591111,-5.0456021659521655,181.08662260233032
-46.84642768391279,-15.08472012601584,-11.394966534402926
23.980499540976744,7.671969724427882,-186.65074208441018
19.785822019856912,14.46138222577602,-115.72100179416185
-29.561517829007716,-20.442432952179747,183.58165849925888
-8.101834948321818,-0.2943556334343332,178.2611079249363
-4.3658445386282105,5.049382533621756,68.76213554072284
6.834210762474353,23.13079295032872,-384.2784239823703
-36.295845876971725,-25.608397780640473,133.0240864815519
15.609951668058944,1.29882999127195,241.11739499096325
-18.113391519305882,-18.255870634889163,340.2760719751273
-10.384915750019081,14.367138129129025,-103.41254829935664
-24.13303905514509,-28.700984850070682,57.368639781264754
-13.99185789309607,-18.20054202347956,377.16563257187704
23.688753920246803,17.433717747481857,221.51469860228337
6.863666257440179,-14.674444745871503,100.83183670354666
-18.181267916284273,0.6601449141052276,144.91420554070447
1.0546146105821546,4.267580725322406,75.60660796775646
1.94656849712701,-5.451098816677859,25.13848520403714
6.789883787704708,31.254178689827604,384.14957127310527
-13.807258814655338,29.543555560116165,-34.296208307763976
14.970875117857299,-13.069498455438195,-6.541983125734575
-29.830033225250915,36.197986229470736,328.9894313143173
-1.9671269840160657,-19.519293498252534,102.4689324476611
-4.194019754264362,11.469401879634171,-232.82801587838276
-38.7914953962052,-7.808110053416383,95.48716848560686
3.1548422431525545,20.408746918225024,-127.45360673474315
-1.6491737253447702,-30.148953526912052,-229.7796988250928
43.016980274190516,-17.622194995909947,82.27472215154339
14.440562612782806,-17.435746885422198,52.14964520875475
-30.012445894547213,8.699291009709206,-138.7257534656258
-15.594337227616995,33.57596456914991,246.68040259874797
-4.513390400039251,-14.639186754403603,450.63551352749
-38.10635105276071,7.014996992525255,77.00003935516582
-40.12682980301481,25.39080944968156,-70.44669633433426
10.626861311907518,17.19482881387106,217.6478355601509
-11.230227905286881,4.066184469887942,-59.433209068938794
5.414193933757919,-9.155129857656956,241.98047981260885
-37.94588782121754,5.469640247769441,279.3088070006005
59.00818497528191,20.244905021591112,-11.659341531964202
6.886585208362559,15.181776511397068,99.76375857600216
-19.63976015843442,-19.249593167516196,-114.22099921270012
-2.8076399227848863,-19.54918561579771,-448.7437502508419
10.44124136492433,-4.5408676762391496,-21.657634870900694
40.143161219041296,-8.932413194860692,10.747900853809057
-10.985254154782783,-43.78385301123774,249.87516497844342
-28.61289819862688,-8.108061987441676,176.20725630964523
-3.400682680478903,18.52305612009328,500.99866749705876
19.28977116308089,-5.88660727122816,-472.5124211046734
15.927128640591214,33.34864077023471,1.4464863037079567
0.23091104583764258,13.642033340054455,245.48912650051255
17.81108191439222,1.3936085284140163,-57.43321126115379
-50.6516104797518,-26.650192308728997,-256.55040173258897
2.009887114867831,3.1633344182048564,-15.768897599355512
-7.578734177118701,5.044865914119163,185.33809069623578
5.815626639839784,1.153220157309119,-86.97097542467128
11.01922291586089,25.88139390568668,181.75090702288554
62.06539718845618,36.178976895927576,118.21963644293388
14.854986022754986,31.84604834978323,104.14445398901248
-0.16725359846309187,-1.069881722556272,-28.253814820596432
3.9167375301771195,12.80104831918342,-4.220173867096747
0.5343264988017903,-6.675614058470028,-49.11590932553992
-5.735298133301926,-22.062896134406124,-7.530646396658753
18.53512322881071,14.421720293443254,150.16280886180914
-37.50812120199461,0.1685610234957148,334.60868156631875
-33.129017001940404,11.506073579590698,-47.95966988000703
26.552269096883627,-24.742702229138747,228.30559935050653
-11.69274638885553,11.027766008176263,417.3767505889167
8.756467031827267,8.501664142277491,177.17915568243433
25.462751629864023,-24.357804627265782,229.9719040442126
-24.794619776962897,-24.646503369593784,179.24029154193636
8.795232273102584,-11.545992946682679,-67.0708281248246
-25.805867870052325,38.11006534569279,-214.53181607309557
-11.215774642343757,32.375400805140046,350.8603400544664
-2.8738780695278154,18.076696236981636,-130.17785667098286
-28.23092476090745,-1.7847041942140147,-235.24511565013427
0.42548409814945365,-47.98069635197392,344.334524371852
-17.03128641105803,-49.14759514268371,-139.39184495773475
-1.4787586735420952,-11.260961828577454,262.02946790785575
3.413732813859196,7.292711771188182,119.40252093737917
16.330968890819143,-11.897122237466313,122.23154159032978
-4.515445914666526,5.709533598362038,-37.72073344845958
17.724499696370835,-8.393465689139227,161.4360386679049
-4.215503605689075,-6.065419078180513,186.08713624328232
-19.04499672288291,14.856788572056765,210.87089061460165
-0.8369170377196651,-6.031246149559069,16.278604712947526
-13.451740212707069,-14.216275439207635,203.9018706449705
-10.508437987872913,56.84547983394326,219.5830301082098
17.55517692494324,-10.780708489748772,141.3057731887476
-23.164951062434614,-20.75959219379676,178.28502870088113
12.80524779557076,-7.055340397648124,155.57278065565978
-14.564815942405048,-13.378290685048874,144.00807502030506
48.78174505089167,-16.310957944885484,53.5967836834959
-6.621841944639177,2.996456343502008,36.14926295830534
0.18360036513651617,31.88025192663048,32.995596203429415
6.028748857147679,41.1507194753921,228.28486145947292
9.108380836924649,-26.93911708643336,102.65897970310165
-2.712475452875852,-14.402382031143759,61.825661402976046
-17.416942934033735,-3.6397613323782534,462.08646276266387
-28.132886002473594,-25.01790392823009,194.1829449326034
-28.3525717337185,17.765109623872245,-9.205214079166211
-0.14540894714752753,5.576506736653867,-8.232365851335757
-22.570291407665707,-54.14949767016964,469.1740798240743
-14.292316814080701,21.98332269908452,381.9994114345919
-4.786551944388268,-17.759257640645775,223.56552546548903
8.139263494867631,-9.823279752355525,67.00550587100514
-2.547935584863149,37.508078913043164,-178.01785954097244
23.338037548689513,-2.273565271168458,80.40773318176929
18.075209330898737,9.45740850402166,117.23460420935629
24.09230044634961,-3.821557075931394,105.19328211124494
29.544196318111304,13.79331166822704,16.223794285420453
-5.570141195110602,-31.962094884850952,28.949940235824556
46.41051696966643,-1.1393997572552124,60.99360240769926
-24.56586292939759,0.8127421902622094,-17.565389934839914
14.848023018201964,2.5399493893241116,-9.920633592541918
-4.033475699846438,2.528196661817078,259.2022874355042
-6.963168937646806,-24.32461265187246,-195.7719178430291
18.94786414644007,16.627187873647916,16.7208701663928
-2.7933996647300163,13.21190606556489,246.76367779126514
-17.687843503411916,1.7032805585779898,132.21222425070965
9.152512932793979,9.434577587799094,328.9393378748489
9.36473515706508,-3.9468763004370877,200.8205115108671
-24.90614995323673,23.984189296842562,251.9022528360958
-11.952847095989691,-26.247392661501266,66.90984378340502
16.040703639998387,-25.23227345622272,30.66045991531641
13.279339251379286,-1.611446215243891,142.29609490608044
19.597184923086,-7.5308629261693625,66.50255750784396
25.300434821467114,17.027797566948845,7.855794036266673
-12.847419607873373,-26.452548086191428,150.20957391197007
-3.6347873636274235,-9.146242740561272,-6.972494494458445
6.992603777976415,-6.406507017597104,192.540910009277
-30.205339681376685,-15.115515457890233,372.45878907486497
-6.635336915451577,2.094693175701868,323.786598837061
-0.538044031780068,-7.717221595167922,-163.28739192822167
2.979117364872695,19.6129633905441,152.36006640602074
6.7213593326546475,-7.464436805478037,-210.79084790059454
-8.172108791744051,5.064603809704016,552.5888006763951
6.75630020136151,-5.69449854775316,386.7038904788758
-8.709602919696257,-7.149317056574846,266.25069432870487
9.436287659845153,22.269724233970333,262.95636462564374
11.871240514540231,3.9800535011193356,-40.03678218498115
13.77693967320441,-49.47338538625818,106.60796417855461
-13.112371451023474,24.514279086312804,-58.561899845122156
-25.268580147098717,15.09363366931199,-36.309144095988614
-25.67770344024722,15.009217670356328,-44.85053445027964
0.9860418546464169,8.18648758069408,142.7437040386065
21.439345049321897,-4.279272799068822,-262.0587662392313
-10.818306941930826,-19.022645656483345,-478.9107392395414
24.70872702585,5.0605849412861446,283.60422272769523
-13.852167055951817,30.47273444668258,-262.79926882875657
16.832533541499306,-1.3232106445521286,212.9001700283577
34.54377231557883,-56.14928697442052,227.34281510873151
-19.931830831884454,-14.173409438184555,672.9772491990267
7.373472739866365,-2.242799892077409,171.89010224972338
-22.27334436860466,-28.44426898237635,67.74900545240044
-5.395699108134911,-39.927867917516,172.12928595884375
10.380368643381313,9.102633549311385,-13.53480360917247
20.45869835945326,5.74078288951679,-62.340343838620214
-22.314840948823147,0.24073749459804705,219.3949545006535
-3.0315973566669903,-6.971111877632204,76.4643375052802
4.347149567459723,23.458970929862588,182.8541654127066
24.247126790979188,-11.255946999132359,133.99916608992484
-4.986139231396755,-11.212045523112142,166.21437447603608
-22.898766142040646,10.84501407116023,-163.37558914138674
-0.7967129690134174,11.707769322564454,50.68632918410087
-21.433735557549255,-6.662423436090897,535.6095013396081
23.861770028247324,-4.361470603639655,42.61076598543039
18.304915476764233,19.038898324333974,203.20095815462108
25.950881462806116,1.5061543537646953,168.39061345025607
8.116899491949797,-3.910780660253912,55.18646492179498
-28.11905587219406,25.321400402583105,475.41301873012037
6.411403108718635,15.268568941441368,-78.64991712488165
31.832908069486194,-5.450219854712376,205.02118986963876
-18.922006125764337,1.9712278865406767,149.22992517789845
-10.373453846042445,3.477478018863925,-28.89924933135046
3.8342710872209413,-21.319653326409647,-110.45266067808686
-33.489949396197666,-45.07844775316069,86.01144786040243
24.990419506238027,-17.42864279060114,483.15027861550453
27.019753087132884,27.970099552250925,-20.962878717646177
-15.916830259982195,9.760369478095031,139.21649900879567
-30.68436706680142,16.15276693747413,-146.03648538958774
-4.034280049698243,22.374515981428832,46.949988729617154
15.58949257289827,31.90812966278778,10.127096729364553
2.4076561700226087,25.243357376656817,31.7745265822207
5.209454802466601,-4.124652969117607,257.27570718635627
14.988760728174755,6.702491310725551,72.64603305061554
3.58420359114925,39.77236540482343,227.64370239076794
-23.87480322749244,-21.279313499961937,78.25984400701229
-20.91484272433487,5.5722358092457185,401.99617118079993
-23.932199262603355,5.764355627472487,-18.64085123401054
19.510360584938518,-3.160064854807529,-63.721796154786546
-13.040455681388847,-28.17318912754296,448.68284489984586
14.66455454884896,36.37800791880171,63.983621264400114
26.19214158936115,9.992756200041988,100.58344755998405
-31.617829946655895,-31.604808278334215,51.654256265992224
-1.09486827535206,23.685483200265868,153.30731608010763
3.903767353518936,-26.037912096210768,-188.53848513817553
-7.806390819613936,-22.445813724829765,-187.7413799213042
-32.073122238920035,1.154967583791973,38.54237246174883
-32.167473458258534,13.615852540277274,65.56200134881347
17.583020471210304,-16.53089133838327,-98.21760737091674
6.605052942291695,-11.37268993898341,54.625361655217205
19.175886165229528,48.864023228441546,445.3498472166309
28.66774613020583,-29.4750635625681,-102.09814722164163
32.75926328949892,24.075144305760034,245.16743380400877
-9.070601229283724,-17.564308783258166,286.2615869449885
12.24945894416092,3.1030613215682425,431.4241497772261
15.822534824656177,37.97069654549806,300.86755603186805
-21.021259870609057,4.0005434577772805,-70.77005231106452
44.31213684859809,6.102385813736557,-127.55075391365017
-0.4209563639913228,0.11663597175697095,-127.63665653775874
-10.474053044308612,-23.268807602175592,15.126653104179226
33.054849518730485,9.710121930012411,-117.11222272733136
-15.772811289615332,30.884974930567765,134.05317404419378
6.197413738210384,-26.67798472983844,122.1498212386565
-28.01751327481229,11.410566180230415,86.88456136839807
-7.38775336339276,14.388124990199023,35.69262484898711
2.2435084540152768,-15.665788257065804,-72.21961593572419
-7.299314413581089,-18.47072026893349,-142.66766568516442
-30.908061998061083,-3.5681650098903672,-63.97128280716203
-2.441125935595045,-36.15864829680239,75.16974488240899
33.12868980663989,-1.3726554708504282,-52.942403830372484
32.94712377024716,-11.520240993869459,193.27097938661524
13.586403085273314,-1.3385186709515595,-95.86782957546859
19.82834844241326,-28.57421551457569,12.68141178153364
-34.58577515778542,5.749526511294068,388.9434579152447
-1.2874054404599313,5.511690806418049,12.000609814835087
-13.407777821083652,-66.04239389981402,334.82486376566897
43.178274780013496,7.706808008959099,386.8160285070282
47.18100875871216,2.5472538227993056,313.02925273537517
-29.10136158725125,-10.998285425731368,18.90015420377466
-2.259220739401953,-22.125902835213363,-49.587153313967235
-13.291412384566872,24.360181790234673,261.7236408158505
-45.729348252048496,12.72994638636095,-220.67980515458487
-13.32111282311785,-5.380277738035382,302.33591683996235
-52.803680244093705,52.37529747858482,-92.8698041948245
1.30723038889517,8.528329903304693,84.95276698795492
-32.20144122826036,26.635393285470343,311.8595736164691
11.236379949155273,-15.804281684694532,228.1699093966268
-21.663435924484993,1.6794163646879792,-11.90137142528765
7.605756437740496,-24.781707348327746,149.3976851990346
-28.049434050148395,-36.83115806861431,-248.90599721667616
53.57906896919517,-15.005171071573537,16.207775723626256
-31.51888874455213,-25.30066352775931,37.59854611903726
-18.423629176363182,-9.909278140707357,-68.39758106939053
-22.223496116955317,-5.980454781192467,98.28037463210808
55.01506675969411,-31.42669544889788,216.61973403650083
-5.192191182596613,0.7309978915783738,-212.00190397353657
-1.268093559502167,-20.91926947062449,-188.69169728559098
-12.533006689991602,-7.511817379073687,200.8022296876774
17.09251742471126,4.4703868983173045,299.2689741685242
-35.620608956904036,-28.99923087883574,212.90040147359176
-2.930799129191767,-2.0868397719931635,61.80123140917884
-25.45834739528714,35.10193774434485,13.681971792423738
7.654260768058693,-24.095822074068217,174.6733450616441
12.02018322057089,-13.386275888153367,112.38475171627094
-17.65065260904698,-28.55980649441632,-400.7270376816791
1.313927589115143,-17.656447883816686,301.58335934652314
17.29179567166733,6.528743589998216,-432.66472322121706
32.31716913051178,31.501252002296614,44.33882706083242
31.10740732731753,-13.12805213115594,170.67235833571308
-1.1748766365777459,15.050083430411846,70.29469336356414
-12.408382926099238,-28.701849857734768,369.5047726459098
-15.501276288016339,15.085089621674083,25.296335995174033
23.517897995223546,-10.124995017381917,-186.52841783213097
5.987500981026663,27.0958076947717,-35.901333569071284
15.907213074047386,28.38227391964842,199.63507198301875
7.072784322556363,2.55759508361331,225.5906087964371
29.218827184084738,15.504383845855251,79.19956986845979
-6.305067731228135,-7.104446020561031,172.63064025247417
15.933987623518927,4.153649835694192,80.22352972612161
3.83109068385219,-6.117387788095638,120.00268284022057
21.608182741500602,1.6698195935598905,94.14510640618191
-20.36583311299183,5.282494921068508,-75.4436371171102
9.490750067765479,-0.19208299462164916,221.98104859531782
22.66673096865443,-57.13218052599864,426.0537845521065
40.21546277286813,4.519775650106588,320.66160046409476
7.583741049493685,-20.11778742547294,334.05263260816696
-2.487278223351238,-19.740480224583383,156.16833069811668
-16.873812508131273,-0.8610390978493245,74.00556314413835
-27.408699817939567,-14.7397769115725,211.34729976711898
-38.8373896984448,1.5559472115569184,-159.14053975263005
14.198433052163477,21.883342493691927,59.074791755532544
18.535266780040587,27.433195619647247,195.23512986901338
10.89573345201677,31.481352754883048,376.00052714606574
-9.653783281948586,-7.651924274438637,128.36745469290543
-10.978981761971813,30.366725432492032,171.6335326480807
26.504680911823808,7.273939309053221,113.72554411878053
10.162792052385472,10.311284140556909,84.19997741105534
2.405437082563682,-36.230331265661405,-263.99239926997194
-21.82948627051357,-16.343462933790025,26.92360112710965
27.035862893680644,5.4992102407202665,-33.99109565144224
19.111015860140082,12.590367519908192,80.40888783717304
-0.8259148240124923,-12.405759769147584,-67.05099274998639
-35.27383848476316,-33.70096934932146,692.3332061672199
-4.2375555925261486,-6.888360759231713,228.4832638353358
19.086161590807478,-20.171660322744454,127.55978246976466
-9.163968009025105,19.314584167197413,-154.69353164496175
-12.91461786084321,-0.5941330723368552,705.149948040786
35.51919890640232,-21.712870056030255,-90.6390707965019
6.7713471079932415,-12.134475547303103,2.3862350237971697
15.438295246285897,-8.546370017258115,3.8030599470099133
19.522108670439653,30.428246987167643,328.068337146588
29.74698069474334,-39.44554632894484,128.83997661058896
2.0810751163617582,-26.193220133195783,138.834210968084
21.82620341571594,55.181968553607945,-243.2313792395658
-32.657100712667784,-1.5977444286229259,160.25275993642316
25.449879983575595,3.0273163842068556,-409.6943360498276
-9.602307721153716,31.224965866187752,26.383875673396375
-5.338960822190099,2.531801807234426,0.05005764604064211
-20.147815279577586,1.40680615477675,-243.44216875253943
15.88427849023287,-16.59464583050694,-8.620996608551977
8.604366828554582,21.50929084776422,340.4095950929307
-5.298419980817308,27.255783385763408,108.94928061924935
26.341678718031822,-0.1734324111877908,394.0022344454961
-35.09832186188612,19.210152683416798,467.5253278087631
0.30816616475094327,-2.3531749075596657,167.99140457123312
14.951157959024595,-13.048768216048604,117.69333493547688
-6.390008433167441,-32.34739123607623,143.69243782446685
-26.919480756604464,6.200319306796917,369.518114875939
39.27268939733604,14.844345601080612,147.31308302659278
-3.821041017520424,-26.60532099375523,-109.08944064526534
-3.761952735093692,-1.9628228766455769,-4.517157308697236
81.67712688055076,-15.40137545218866,361.83706022911656
17.06336070389692,-24.18071936634159,-395.339444391182
-2.55070205141162,-2.809634405748924,335.0717141332309
12.594360040072294,33.537361753408995,126.10999937971064
-42.675189863242615,6.730087241291569,191.19921382141928
-41.96305315256105,-11.76989594540452,0.5397672762442198
-7.1514458653834865,-0.2239046590068336,-95.61842219861364
-20.481044216103136,2.6059497486486776,82.67214842147325
27.859947067653472,-20.122056538578065,-17.002457928980235
-2.574480069952401,-5.934691911954069,466.3062013521428
10.09795067080355,-13.162191091511913,439.4937144367218
-13.86741052286985,22.01370290232996,276.0887265238332
21.413549370370614,-3.406850811086784,344.20548903481836
-13.738820504731127,-0.6879317949370717,178.4893927498118
-34.730433086381794,14.36613257407309,490.7641957669162
-37.84198416915981,-4.04657203297106,565.9549235412942
-31.69018318507363,6.397492270076231,8.937171672316666
21.550387345878125,-30.4696673768512,502.935441880813
-0.04464004133742681,2.9822697449309294,285.2359083906083
2.512616477300376,-22.712447504282267,-78.27410778227579
0.17913134530190516,13.569601918211028,83.5456943601539
-36.001470714269914,36.2939917798643,498.4217291197095
-56.5606706682292,-14.950523731240963,267.363490956776
20.434564997680432,3.7015678728260566,279.02108817839206
5.605301509768833,7.262073170464946,421.83126334621636
-10.442951431988863,16.523087465812644,-141.57028524944212
2.5039688651735443,-14.05812877833938,283.5256662147832
18.001955001798706,25.098161583299827,342.9172986162631
5.389958805123433,1.6558020462244019,-47.525830363445806
16.879983694171393,38.44506435762844,334.33100656405543
0.47993635060626305,28.563326743200484,5.61176585471847
-3.3154744082230336,-6.431951756947497,318.31834731854946
25.83648543874201,-6.071089501320188,161.5613026158665
-14.618424411130384,1.4367761321599746,266.8362441977152
-7.947063845953571,-4.501196298876034,-67.64677685014053
-7.321496540844764,-30.054241246334705,-53.38333300475796
2.483063589271865,1.9441752970958925,-362.24978110742757
-28.708783767888097,20.831761151004642,539.8514871278809
13.844104890334851,5.899435799073397,151.82068412494394
32.64552801665967,9.465061305374471,-17.04144628211199
15.45941726189475,-8.330910177014712,-126.50556528636923
29.44223448920981,6.736861456197162,53.70102265278317
14.566231310030133,16.151906097006574,64.90049383424905
4.803390253864726,7.673126023325092,431.7801497558787
4.406505874938736,33.79604505293492,-53.44621131351454
37.21982611377771,-27.848983997279397,326.32565130101125
9.306623814082943,4.09007113343948,172.5364071066736
19.273127123784914,-13.394368348536904,243.13078593066706
-13.118719945589179,13.703466615583096,355.1642437989975
-20.80848457251315,1.7677693421519713,-114.63016942804
-24.390763751651537,-5.4980949465549935,-78.61023668806786
12.158629476516339,-15.165322091585558,-156.71831126216279
-12.620785678254185,-6.207678183254314,191.44729557487523
28.02279269628357,-2.0177729076349307,-181.78352891940517
-9.339925811755217,43.26713060632609,48.844001184292964
-14.029489744501465,-0.051513436685356906,12.067365929655722
-30.77380769050013,-23.544403527773724,64.92736939645404
15.799141531148553,2.7475627973808736,207.6799773617766
-0.028109821392523424,32.28284960459934,222.24839972629366
14.408845205448625,-1.5111836989695884,180.66686362132478
6.4002328922104255,30.11270910090087,-49.080087860573485
8.041938940656632,42.81629511287661,321.5231814129619
-35.754465550413684,-3.6998120717893164,2.0433739507896433
-14.094461433698415,13.862035706072726,502.4847242665035
10.993527444149837,6.711620620610991,306.0119093917643
10.95339478707416,-2.334648080986755,328.87036991088155
-12.65682136257977,2.413432924218248,153.62644441038856
-25.83189861764211,-11.958425741045781,-3.266315710649721
-21.829420962391303,-36.60281095776839,255.02760107370335
2.736678948690527,-14.312981536053368,235.96587926897536
73.50494950753887,20.116120482978566,296.7097490498298
-9.745867373472866,0.8250767480301193,405.7751250351794
-11.697177321227484,0.8285711716206962,8.493244717834742
-9.113082880002018,30.649319913572704,212.24941544782976
15.350031627815724,-42.3585304784996,116.99951895935826
-46.519927581064934,-3.7120437930221657,-210.0850614184181
22.82266092262027,-5.923863908385025,81.37812338477717
7.996027140401355,10.533009917608847,361.3701451224361
16.01678236623027,-9.045916690357691,-82.3190468310921
6.82459258341523,49.408420829272316,151.79369171819596
29.343439245552613,-21.903403323212324,168.87596282832635
40.91743100254823,-13.429477085717744,30.893865490187963
0.25109410076359695,9.432664758581428,297.7038385492496
-9.89348430809889,1.2606257922355715,118.48055580868512
18.512586471974195,-29.378952292479283,255.71611025833866
-1.3046472156997568,30.0067149478001,102.871332500856
13.292543407666296,19.13504251651996,140.18381635047268
-0.6018019312435458,24.421497656907583,251.0397627059415
25.04003208011163,6.3819119949085295,336.88198335061
27.992103399792903,-38.17981595227721,4.414313659742689
-32.73031746358151,12.146469148676466,-0.06643560707757956
-25.788995561958433,8.888299550609386,144.31905346117424
10.424129956977893,-20.0015695277135,264.0175719682578
28.012802751870986,-20.04605860003099,6.630129846374558
-10.296920350062775,23.85490761400071,-109.65194413929117
-5.223071315970239,-24.815112665161347,319.375924587605
-26.834711735286287,6.54575391774763,58.13503155503897
29.956517969029832,12.488599371697218,-293.6267596517347
-27.78774220478109,-17.354904546955233,-12.86997117972399
16.4907584390121,8.768275852232389,-399.58965208513166
32.104405466341326,-10.813662377927315,79.81432049502027
23.57165917706565,-18.907738306766223,-154.48155703955217
10.578301728045352,29.518073456141522,281.26004575268985
27.533932721282056,-35.26245595176238,386.40154637885917
9.92048706764485,-19.386221438368658,298.7723892708041
8.329257812305993,45.84760146284868,577.3109944555222
2.6550936689094313,13.11961435621189,78.33102164221698
-27.52531999254804,28.577676464370736,32.2093039198442
10.437941637119735,-18.75818384853758,-446.64310211886186
14.503013966601475,33.703512297045734,-196.25566721600046
-20.096968500656644,-13.210397341950939,161.61313571775958
9.608955764919065,31.126821048993282,118.77583388551609
3.484217983339599,23.874962343832923,16.52344719440724
-28.161365128619384,9.010541750381627,-27.442956298777204
-42.1716940872908,35.687550069468365,265.1259145068393
-36.46179419651346,10.225035405757925,361.5591424185377
13.891372926325866,-15.827309076862573,627.4871260337587
18.163587340547675,5.094345032441953,389.73154207815827
-18.046522256607062,-4.00789908373718,2.1359088068358574
35.77865431514355,12.539450369033247,-116.41135628600983
-15.735903963540089,-7.733689530549867,96.41056830921528
-30.288121122802465,13.724691256960993,363.00960347052273
-14.53619647417241,-15.20064796592004,116.94698700674905
21.588808266170588,9.223741030676175,514.8385354099846
1.482758511227413,-16.417680191817666,167.89362586686417
-9.408171363032125,5.703570144479575,22.878074485045147
51.85665254070269,-14.454476329892199,296.8798664707057
0.10227680981983554,6.156906153866297,-175.35737598663871
-15.733456270375779,-0.4631215500803002,-149.1328451215463
-1.1239837897045453,26.18485109616689,297.9675169950782
55.395505320630875,-6.781656099471603,-81.23336388657691
20.965368229042323,-10.04326093873243,228.46012986236414
-19.64465595163195,12.043450300227306,-131.85511358452862
18.264809303558565,2.951340398303939,-98.20002948819388
-10.637223255858155,18.160135553156486,-23.849527303911856
-20.564520796425224,4.222212992745301,308.1451462225146
-1.5148295161617844,-20.308046944400985,229.26146467308516
-17.367118309626942,34.936559560857084,-132.96441109239606
22.84852698258056,-8.392779873953902,206.7541526086228
-0.14883422052745393,4.1351717901154075,46.872000864379494
8.760227045487113,-13.856916084249873,-58.85098660319238
-12.96308544802518,7.002962888766446,163.78430682787166
10.654884238128059,-1.3250980816175948,138.59085691274768
-4.472233328880163,-4.3818143458039405,-233.3415176352902
7.949840340767288,9.476847365717584,303.01777159755085
-23.872063187775403,7.7950872077622835,43.309162261311705
4.203613467875606,-17.964169377084737,69.25262464801392
-44.683952289365024,5.721791721817694,295.5215440615718
-1.9490729379389917,19.96213165924946,-34.71101938031029
-9.898581008367309,5.072103733227406,416.8977532658303
-4.172699185067568,7.404476146560192,-39.11089014104692
10.324681984702757,19.4193829087042,-53.019426574456446
20.480150051311142,2.8702347430440573,73.4181966675483
-2.8344051749224857,-4.615246032875157,9.864100121189864
-27.271013954434572,10.060971473292135,-65.40162190367721
-10.51777710636883,42.39021960678423,235.06286188455115
-27.014755664906577,3.885146165878908,-205.78614566461556
-14.895274578533064,-63.7723046408836,94.48452345030134
6.204482508203747,-27.116761316414326,-145.8006667620348
-54.54756686644466,5.033514493867796,-10.595166164017115
-14.87116795905843,42.4387227756595,115.5969896684853
-21.75475713205502,-20.274228416813706,-95.70768559385877
-11.997817768124593,8.534567710129974,359.74523940176846
16.318332593602353,-39.968164117254254,-110.08771694835647
-12.173620370984441,13.04271939091869,-38.22249948131363
23.953139490031067,-16.192763954452182,243.07466384419618
13.587937879407889,-16.290668161309803,53.51841887683293
13.609979311332799,23.20157653866548,31.45979657368312
10.471603762947533,-9.380369179000244,290.0850457514659
2.4885275116199397,-22.34710250812295,262.0001172063852
6.981426619670047,33.216813304364045,252.07673679669395
-11.707831327269071,4.767461669241054,527.2628297597407
44.5466951245629,24.98318120583079,217.005498489564
-4.362136210352357,-8.862663061410275,447.431519463194
-21.05438143234114,-28.32441453957189,-29.966494478949983
14.592342228073974,6.295527383969681,286.4053742213788
-4.775018547252171,-1.6522291541031233,122.05227744005126
2.950551791167269,11.500052679576825,175.85677639554018
4.411149536650425,0.03361712978592291,308.2364057217387
17.459866842642413,24.17470159731087,-156.48842266354768
2.9912986330676676,1.645058680564375,-81.59739224182712
8.163932618294947,-37.916131272825446,363.33047611516014
-17.848656027821168,14.272653485356612,-118.92479813058796
9.595346253781647,35.7567403737844,17.17134468658591
-4.265135413582902,18.350452396664203,-154.549915453177
-28.955833558315792,17.098655721105832,330.4500082764789
11.710487513337057,-21.150989800494656,144.5725814156491
14.989227328215273,2.3157312608907903,216.84886276334265
1.0539116484022122,-6.2844826312701585,52.247121522960896
9.502782570081793,34.25181529291528,-24.80018241008328
21.64700423944464,9.618769070681136,204.94449182379913
-12.333278219355076,-2.1978573739622407,240.66399196525904
23.31845304254886,-2.0670410136744937,252.9839308832036
-1.4917086056549376,-19.46723655695172,383.92648444839745
25.807488011913513,-30.046277202878237,221.5891200285618
-0.27007428642314657,21.85043998461108,-32.8065273959964
-8.622732409771594,-25.686841140483004,69.62730445995987
20.16457298698726,-0.013400796667051986,-82.8373931716722
1.3940316744366446,-15.02661660139432,124.09141669166493
28.628740839050568,-4.4519874889792685,-26.2994926466761
-22.41780416258102,-13.113201930418224,-459.17543285719887
-19.266025827559602,-5.217779426175694,-24.683966745489855
17.907965567846315,-19.676580080022802,20.685466948960226
-11.28499732561935,21.527913076744095,251.93148563497988
-14.442861073527736,-15.046200371499951,240.46196253782477
3.0910045521053386,-0.253415799603342,101.77004870263046
-2.4042324007685276,22.20937932228661,499.39702494555434
29.24711158264589,19.751641390322593,91.67354765688496
-34.795987773124885,3.3182682190143007,165.81363723121086
-16.06737217982795,18.680586632893608,433.92147063118716
6.757709038907627,12.678540989033078,144.64328925827294
16.414831965780156,33.06358828311393,236.62737046902768
-23.579112236733657,8.906847074217088,525.3520051015496
-6.704996040719836,12.412739352096398,126.82435837633533
0.3126116079998007,-3.952067000562907,102.08210727699978
-18.954326654473398,-26.161159470468043,184.73628056454248
-10.643691969454052,-20.54336257984428,247.11823181273013
10.674783684999552,22.062493942368732,-201.89420415987638
-38.50696443645442,13.41706116715124,4.386006889086559
-17.682424458210882,7.388300043294423,-5.534789115786978
25.215770266660286,-30.486681913542576,206.6648715874831
-16.42197631843428,-13.72017085558176,67.97445990004402
-17.986495391226637,-25.92940893487709,543.7764339017447
-4.869068723808303,-17.97745968520562,68.93003639955194
11.565739558613943,17.11587576063739,162.88636250281348
-13.890656528879424,-18.09401390754822,90.74712900741304
0.6819631331241618,-28.114503871601563,109.14837840751764
-32.095789353419974,27.88016167084026,229.9066349389908
-18.95546813148532,3.272418081281744,350.6463374137856
-4.87901758200353,45.27884173132187,92.14534888003307
36.80011336439576,21.392806778585776,338.57793664222925
1.113403580372376,-11.370591947474464,282.3280426481175
-54.68302458091259,30.087347010500338,250.3202587703807
28.507341595101533,-14.547447738205477,217.40848849495148
1.6616699819606142,-2.9185591192637803,-285.4641286839815
-1.989382921333041,-1.3810421420407102,162.1051352660633
8.447402584930103,9.885047732203963,-32.19853800502699
-15.492693239252283,35.25892254263795,-83.7569623674458
-3.097982840383477,-9.260146841217704,306.3531202278507
-12.85929144156016,-0.6866726944772648,209.65671260859753
10.910107844630382,0.9957549160097212,297.7447572073618
24.669072973496764,-24.29153012013662,-194.97016371693024
-2.894392215096308,8.50972677727386,279.9546315164553
13.859099950610505,-3.048984424517341,-123.96003187674057
-23.6040474400034,-13.76116278755228,386.5396634643335
-31.51749795976385,-10.540810508315372,-295.7388464418799
5.8014471146528575,-19.469122734732196,73.34901871514435
-27.87805651543263,2.0523237526702616,151.27172793849326
-24.145615904317573,8.896495694528564,110.04114570984233
-4.966751067894517,-17.345884936336155,134.5083783429517
6.822876100752592,-30.072072592640218,193.742303951655
34.34029088431763,4.511209901059225,228.23970935366214
21.170202837236634,-4.302140607418566,201.78222409523121
-19.98005905549047,-18.69088075017084,117.76720337227255
11.48022834862957,25.1434986279249,-374.9110635293148
-20.446425849053607,-7.899695619893877,7.398969580138655
8.98171900967017,-53.08952379664105,-66.56548249992343
3.2079135333062494,-0.9129736668132898,159.47025775724268
15.088700928490045,21.571863724283705,211.73014724138304
-37.825947080543074,1.3415939086253659,277.3148787372353
-6.510973522536073,1.4966857354121688,124.28729591995094
41.17070700164103,-20.56537086454241,198.1202788488767
3.680671780888914,20.319184915074622,-29.35172204723034
38.4649330954923,-23.34463009729856,68.7101224019406
-2.378673125743169,-18.180310511831138,402.1375349207883
15.501386180713439,-7.767892537488849,-94.87127376903851
19.33547184695689,-5.6084084592985235,-57.09757389750854
-12.367849802313103,-2.5457172970958117,137.52349120960426
9.733117130790575,-18.862527858904322,130.53518713735085
-8.782921147859925,-13.775952056699257,64.19512699857475
30.61545888943844,0.22434794531343388,-164.3016984721952
6.537029436235623,-12.164693525203518,-14.796298620071013
14.419364051327793,-6.825453739411236,87.95681133710977
-10.635955562280166,-22.244355592627016,-173.32382070871944
14.104879930293938,-24.725095290834638,299.85671081674303
-5.036684007688679,21.27823123612079,369.9555837347328
-3.8003914229045788,12.415811452162044,157.67460935712586
37.61508525553997,-1.2969502488025386,179.4248343684089
-12.369810351628663,11.69078420222954,-86.99668784661802
32.60641680129763,-38.64314682576891,-137.80646375560758
30.00936975006635,-2.1629402071987505,113.06552357819527
2.2721504645341533,23.190949517342524,27.05952662430262
-17.49253898575776,-21.218157199367806,225.75531609294626
-42.543624724776095,-16.44261953976119,41.16001718680179
-21.124982352309736,0.14360889772670407,-359.2703243092888
-14.040548450473526,20.27199067344629,163.2316722156278
-1.1107443167565891,17.073010494430655,370.9679927568478
-12.798830222505979,11.039792191982748,-24.231399282853346
11.557579992210997,-2.8312185965156274,114.43800104567961
-6.944676134691402,14.285991920617999,-41.22378255756712
-13.43316699854233,26.99398156892158,-276.84710730727664
4.631511669613966,-30.41193812416499,194.70851527046818
-18.215561561073454,4.607546106724309,223.6681887491441
31.24834164301945,1.566226820391089,-91.29067158085755
-12.06614538740143,-5.536636371630252,-39.01445792134729
8.46322728102257,9.742785351488948,-232.52194854232272
-8.190719671234937,-9.139369485084233,83.06660079544801
8.67105894489825,21.132320639916294,393.90059044534144
-9.540672072063428,-2.076676109888528,359.1514093833917
50.19155213007007,25.551720579155802,-130.25891932234526
-27.320551986295747,4.24776188870167,359.82716363903756
-29.227165924989293,18.07407360445567,-50.871432325057725
18.91990897043176,-4.782099185888414,30.502155483816892
-14.237228074539793,42.527324352957294,154.17441534194293
-14.409609686615742,-24.167759175713254,5.056152784710179
40.81307166328486,-1.9928845915800488,-12.935289015585937
-14.864396230243479,2.229212689526228,-0.42385968433238475
-3.6000238145690417,9.544254053229546,20.581370292354677
14.244461299762804,-30.895581860409806,-250.8590031066235
8.896466244967549,28.303276519802747,148.70018980734437
-28.07961874129721,23.383288271481042,572.4053578416369
-0.1705204186662705,-14.924330249840823,211.8356746782029
3.606587539616166,5.694671278393205,191.8791110757685
-17.756093100553233,-20.929959078562877,-22.640122370154515
16.157187508948354,-2.3220602927942413,-112.26635024231314
47.47181288656226,-6.67669821433795,-147.29761186175995
3.5165765594652028,-37.686785341439844,241.9712958536804
-23.549408723137155,-27.014913480551005,193.69509960768684
-30.80270483386972,16.75083401334399,163.9774993319927
-44.4555480842625,-9.094787362348084,326.11013959611114
8.693631843768895,5.227989118278403,230.7469450657929
-47.19732647968183,16.610309355510317,374.6979070223474
13.583245320945265,-22.219787210778556,-40.94688388170056
6.009452784078563,-11.486416199557382,-117.2958708506541
22.661470052073312,15.969205343440924,121.92763741936544
-8.257926492799454,-5.22388626140116,216.30570106793812
12.828260696102657,38.75057009381807,91.35618391681429
-7.736804810612758,-4.404733187209934,161.0078983792443
-8.948363318863326,40.78942251137255,248.61233188193495
-11.317779431259167,2.8604516295704934,46.47610783104662
-13.764367712902143,17.033229773935812,-46.62844732996848
-6.503113659226862,-29.335790124139333,29.796773509270707
-0.9087841403070698,36.123256105083485,313.19108322454815
1.7959654625206813,-1.980553858376015,29.14221230984721
-20.21807217613756,-3.7383055042717404,-44.55233347319589
34.839225047382186,0.16682630234422913,144.68691849945515
7.266304226756843,8.408816322815468,-125.4730406582961
-1.5709314656669962,-18.181996721803767,146.77831090744309
-0.12079995175091111,7.101006718656041,45.407352360674494
-23.783384702643446,1.4123344214831275,548.7774078054949
