33.39092716051149,-1.041482291646779,-114.11292307028003
-6.13784587298917,-25.416942392353903,325.5970309245328
-17.15180664547047,26.851542354236223,99.1859959899751
-4.974061019042159,-12.60265080661968,429.2083062840799
-10.460107629567833,26.17185029015709,-213.08376614237687
-13.767954382299745,13.77424245783639,321.1616879933674
-14.276047345554987,-15.737975832155833,-27.632522685923448
-10.836655955177605,-7.063229103796087,231.27675519624248
-18.0698121202324,-4.177851684413732,304.4187103213983
-15.618744223780785,-4.316390313240342,198.84370409657475
-6.407916343844693,-2.1046431137745474,131.35548399436126
-19.274450218441142,-32.97575010962075,-21.69222766437089
-18.009944258840623,-14.619626746822497,88.92037891756777
12.411233137788624,22.652635189431972,396.57068664136904
-13.30383378186667,-11.16013335885695,-109.80477591153544
1.9011287259977594,-20.096771971068556,-63.65520400414556
10.06236962069243,-28.049158762068345,38.188491989719786
9.789566364674013,-12.990338334350204,153.23552587944627
17.449620798447768,-35.692165683170515,-108.04049410454058
58.63519269966979,13.615760390824986,38.40095137592486
-17.335333265406547,26.229408160336064,267.9306984188738
3.080848916171752,-5.875341671025262,-296.82657446935036
-1.4162450869162866,9.116117691458896,356.2584601263246
-57.772737255369826,-18.693736220892458,-71.34898724487289
-2.3628154776844825,30.63763737018261,115.38635022101323
-28.27208555839375,-24.211346068296216,-29.753011230204578
34.064887086774135,-23.754787927047772,190.62975536535782
6.233807270842917,-4.644162130907945,211.07152326840455
-10.721268608341859,39.67515175303215,293.35125249341627
-25.197986414461578,19.328834450161164,282.86426089235164
-5.794818955007428,11.984780945310929,310.2453183530066
-12.114961877511398,-7.924611382715896,306.471530606369
-45.68740744350228,18.411865050432546,-283.87192061809367
19.945001167516253,0.16642490710186025,236.83302727314936
-11.910030836580985,-33.283738123534675,162.91526752174374
31.31377579376357,4.429513263096859,128.9677928604909
-8.022641972325108,-10.99233769346931,-88.56145193830793
1.2178361080431164,28.043836776297738,467.3355664024464
-4.134611471672583,-40.914142547231265,-9.0112615336311
22.565213951560622,37.115662365615385,339.5840628045735
-5.068978470518686,-2.983013148140201,65.51694525765902
49.57937374351806,23.738155150936798,346.3578711592328
-18.795310336908543,3.7444337956727116,-437.4388275787751
13.403401042301823,25.23734166519102,-87.39472720237515
5.416854047163744,15.655225486121232,21.17252880095583
30.225991028325478,-28.73860100889536,171.0085598813368
-5.496919814205309,-32.1103665729732,139.35275942937335
-5.173753358067593,-3.9595625220944215,-37.42138193492343
-14.999139000035457,-0.6254889239755499,322.48158942344435
-13.74408665742217,9.599827580210974,-310.40305325264785
-5.670160060099696,15.865744501734284,99.22200198808346
27.278859339610776,-30.788847074732896,317.3611688561789
6.0970765188024565,2.256007389431339,-110.22945304752926
14.461288738740565,-0.12122677087898916,-142.74881108120036
-29.72645148457905,12.997180377095468,332.1751596118124
-18.132545468981597,-15.134451873533884,91.37156962030026
-46.53645287624197,-2.1858801127120393,-19.58785753198697
35.25419076702586,-15.813341540554521,473.89329287840434
-16.934755921125483,5.237553304972769,64.44311462810765
-44.849493683134696,-6.494449303767121,385.49598223733693
-9.108166192941185,-45.66949003812371,72.23327259278037
19.548864377083945,2.695526404313508,220.4734092924185
-25.01523070055235,16.104742479572817,230.2601178706195
4.991633715168759,-4.429568705676814,402.53773861961366
-8.884747835182296,-6.411203136669537,105.86068923605862
20.088203822635478,44.47938007186519,358.62319216236364
-48.08158408843464,-14.883350866292368,276.2008474166426
35.389061803604555,-14.351323734818012,16.247481898190614
-16.650987638819693,15.733838778279992,183.062065606145
6.681047567109743,-5.666983898783801,91.07957666095989
-28.63746295817853,-18.506010653804907,-117.40896311462231
-0.39403568777452375,-3.1515304963251594,198.39021882674018
1.740676614881661,16.561188920266837,174.75296084483415
-25.801839944712665,-15.832033745533211,9.204178697407983
11.999995844393203,19.870766840629898,-48.31635477008453
-24.892525549418522,-10.345556596604508,118.99131671548612
-11.844720921983267,29.299005214074736,261.17037395141665
24.431908726636426,37.4096768758392,322.83080398725065
1.613608026146331,-12.164912798556443,-112.01035665224194
-20.671068196679908,-22.189141616461946,-52.080213675059184
-3.737710479271265,-13.54298091451332,-59.253468810299324
-13.359662264308534,15.643142255766811,17.210892036503083
-22.790863072633293,-38.615263974871056,161.70467231872303
15.476539967778212,12.343965958845214,-271.4866719963966
-0.47756547238347513,-6.189142037917874,-67.51551629096483
-22.286546118558515,-7.831522373070698,258.3424969793811
-17.62977900459102,-20.774821950954806,406.10646180178725
26.054277061947552,-6.930462022154274,313.6202929740407
2.4781918804033682,-8.745103260312018,-219.5693644391423
6.350574967874526,-1.4624984077813674,628.5518314904994
-2.5266164209588284,28.068366674960483,155.37667845035298
-13.149200845531976,1.1802978464250868,312.03507973632895
-19.87717764029042,-5.339248702520746,511.1635614583321
27.838176909518385,29.87776603076206,319.8908100165966
-23.9895140941801,-16.83522374763196,209.53406288672068
-5.256793842289942,-28.95779460034491,249.96887648743672
-25.13509258653828,20.796832451428674,-225.96149617385754
-28.569624057855513,-0.7913583990904296,182.91744387912138
-5.21205813961924,-40.519004700316685,216.02159759279655
-15.335531129382122,19.239086616330233,-129.53339515154005
22.413132756220172,14.4799567136631,137.9729854735457
5.500479629363505,12.85713965588104,304.16991659698596
2.3815745624980207,6.969264656003018,211.7716594123877
6.8174475756800685,-30.22652054003053,-161.73473103488243
-12.527284996591437,-3.3102293075269404,237.35213970892895
-21.378368822261695,16.709650001507082,65.39801593099675
10.009210553008817,-9.474537440101825,290.0469459268405
-2.497855266821893,-31.665825751191335,-133.07045902279634
-7.201081877850042,-47.311262804495954,-286.01524769867706
-8.186018180773997,-17.120448437477137,-119.28221954305195
-12.490300768089458,-16.575951718897386,310.3169367016532
48.117986387754115,16.638763271116975,322.52739271602013
1.2138564179420426,23.512024624703972,84.60428025651146
-3.012169392857051,11.997559506175005,-9.82380453918887
8.924056223012665,2.25579115904183,-240.18391258503743
23.79430081674112,15.206667138064134,43.81420930039781
17.84863078669642,-36.98904173047477,6.104608717852457
-21.166746133033932,31.564973086183457,224.61136955470874
-0.6232108478284412,11.876028805092961,-97.24683819130436
-2.720458463761844,-5.310364270921201,-70.08002529809337
25.464915370552998,20.683642312044856,193.7386132122635
-2.814376986481571,9.793605546040641,121.8775095978706
0.02850550422235623,33.301226205251204,29.96578581487711
5.80569946244744,9.69933034235217,321.90173135339296
-36.7240525323197,12.339220874269348,237.52600390516173
-16.260507030929052,-7.205707939394522,-8.603232921258552
11.125610180964147,-23.527463686736212,47.47677917847044
-10.82144768884831,-9.654981984949432,16.087263080180122
23.515136505471027,-8.26208829275645,24.381372076455264
9.016477367160627,-27.46092271972255,33.141671404104954
4.909788744249923,36.524343492355484,98.21401051865968
-41.145928961513285,-7.260028637125608,113.69436638834486
-16.653162570089002,17.952067923055285,-137.18431256396565
27.2255862637179,-10.130876845263906,36.78433464813383
-9.487176987392374,-22.19198992315894,115.12523668172764
-33.14730446254099,-12.377921965428616,238.20421444260313
43.488227757365124,16.470051448763606,117.52718534567997
-0.7746092372026091,24.016726355013923,316.90513540524074
0.6706791299567625,-9.940276141432166,291.56606588509266
13.729457805353233,25.176064866211988,249.25242975948396
17.024097703176842,-28.682009512031307,-1.0715159408628807
-16.190940873618707,-38.89672361711331,-26.34448167910739
37.66405865340772,11.78868174199373,-206.46727878284577
-28.1377861200432,-12.927886123597341,108.23375740357903
-16.450112870880616,6.423616744207997,-256.24918441507947
49.13722986154443,-16.121612933710963,-164.30763821445134
2.1768980702951994,7.737757289576907,125.20993990523962
0.5937724367565757,-20.972314506220805,30.990298696931845
25.67898879577752,-3.5461933671666412,266.3719791767671
15.31016697250124,2.8991377151071465,-282.5544734802483
-17.770859734306303,17.453198774980326,-387.53144344106084
-32.71277338004082,-6.306056913892939,-92.31731406558009
-24.804972982319132,-2.2194268866544444,-83.09841070507849
62.62080052490039,-14.285298139093761,300.006668776644
-6.067266898243455,-17.930718982978078,179.9923725835135
12.430579709498474,-18.909435313963282,324.1376532210059
24.60306535358122,-15.471567068188603,127.02826784079902
-7.398670485176099,-1.6867704707120676,-42.1524498609262
11.204650453179577,8.196403964671056,372.9283478598107
-18.824829890958192,2.9967293596654407,93.01022698370068
-27.967185619790268,-11.852311182494846,301.07506378751066
-8.989414670148294,-13.960066852017881,-65.93589138059858
-32.46609205630011,8.728566470813332,448.84058443362017
-26.615848156577243,30.13940832518952,121.55049588707529
-19.105664252368506,-24.25594638289734,30.099661432140422
34.33950394719696,-1.2958768543347423,212.4874733180657
29.63843533986981,-22.95682463385049,-80.1197916199119
-31.722443583227324,0.06841173540621184,63.771401453328735
14.545067078733842,14.517693518086215,293.7117925070364
4.718609788819152,-15.179821613191137,282.0729150220361
-8.065021130206398,3.9407313272031934,167.244047110635
-27.56158111647219,-22.815810363089707,80.12954374832633
-3.643527876518729,-17.528628788008334,215.23168685063374
-33.70235237415829,12.259344639410534,285.88951930135494
11.456031612475797,-20.1213030315254,30.85982812138866
0.2547086148676694,10.009646196832731,216.54971108396
3.673838022382443,9.855877555032777,492.2226288324718
8.576397532621128,7.500120398775426,206.8663993747507
-6.515548166141528,23.946693450152807,114.29660441780533
5.106872562158583,-26.931562441449532,-11.501742665185304
-1.4709695719446314,13.737928738778201,58.94316448208723
13.809203484956875,16.374813144224948,112.25593624706494
-2.611576586021287,5.456223859122255,133.04657365396986
-3.804233629218374,22.068565365509777,7.98814447621335
12.14650695927984,-44.5243057918446,449.43573910542136
-1.9400741055140576,-21.494123134729403,-155.72128132108753
-8.33890573097002,5.060853977183307,155.73735372573447
-9.55598957959954,-4.76240155751033,-28.8198978097208
-9.254696625426265,16.42362037285675,382.2155984485171
-20.225731124133574,-19.44958916924048,-108.57725423749548
-23.45664956426544,5.596325945720405,-24.415749176492895
-46.523466747040516,-20.14958654490873,304.1226286066975
-33.052775297528235,35.463339503458684,43.508914183523
-18.50335732057482,25.582688673948226,237.77691290317065
-22.045624363917334,-2.951808209899016,104.93534447726589
1.5105419580833557,27.267333623140132,-65.20657901412076
7.962933326251936,14.889590929889103,10.508366110564964
-2.8037980490864274,-9.113362586429115,68.79539451338238
9.842929462326781,-14.905674416821753,31.652274339313294
-14.697340056378028,11.648058662115732,9.03099638897244
-9.30625912947461,-13.623921745990753,-189.76468008715847
3.990820112017625,32.12045232071473,-1.1222863861464134
27.379986554022224,-13.8129276181766,-119.82463851628805
-18.455188139349744,-8.342360670060991,335.53114160494715
-22.7049020348294,2.699523825155412,186.25068044446385
-32.88500952587865,-24.31055515369834,-189.57871701447988
-10.475129289282943,19.881600469087367,51.23744672994469
7.661737401012488,13.585976385694885,-219.3315187173959
4.980127721763296,26.806329310481214,43.807200574777006
-8.668297843478518,-10.8320108502157,220.13116633091263
4.96248154236386,24.66320182041597,152.177892841302
39.79725821602817,-4.903782783921539,14.664380075804957
1.7212822747506318,13.476323932468821,-60.60755063217809
28.889842208829858,15.903604395981997,513.6740066575718
17.588196657320633,31.692873190795833,-167.29599932967585
18.919414310374478,-35.548896588898366,-5.464772733991154
6.444808566739169,-33.5555764337025,101.24718376842348
-22.94354525390446,-4.882094342226425,-167.7988700541344
13.552513273753156,14.952249107907274,81.6781109213917
27.956271794891833,4.389948703413276,381.61657118257455
-0.5977597828892853,21.973746336762467,-41.45745496477707
-25.092145421036847,17.07645809208231,222.69386273674854
27.28926638236433,19.82127850758954,259.91761062096634
-12.820915735688423,7.989397446803003,68.6278705595918
25.61504404627327,33.26809480694052,389.8966351544836
-27.91446137497459,-33.395405479843426,-315.1638775206097
11.933906197176512,-19.148612547446263,321.7063569280793
22.34303809924274,7.571215280743006,448.1304153560212
4.392095744794526,4.886713508508645,-255.73991888236935
-7.845299612695369,34.729846442820495,259.160526606125
-6.724243741675034,-1.7359825711258936,272.18572070099464
5.08632644825979,2.888938811528213,-118.23662508592369
-3.949811707924653,3.257367065027715,-64.93243425483209
-12.600264156825249,15.207528474831376,209.0411006474685
-11.308728385220743,2.129749242825172,-40.23099244139317
-54.55822348175577,-32.60783323278882,420.30031409267656
19.370517920403895,12.335271071683065,-68.12171034328401
-6.929698149073824,4.561605533384397,-62.37165680529054
0.6958915073840495,-22.43125587120001,-416.11088152943796
16.509075843141265,3.7066995172470967,216.64078939714275
10.79889952156015,3.1372349839611897,-69.93228545576571
15.070098904629033,27.598592735126314,522.4161988697493
16.865639470683803,27.91678710005836,63.61797571704001
17.49058324235232,-26.47554156908274,-119.54934774230315
-7.204523666272181,-38.03744727101026,154.1704186508081
-39.053536472569064,-14.277792042408278,402.97040171493165
-27.848288888836883,-11.91843473469576,-104.67824156862
0.1952708377227037,7.134830848565581,237.39124137418415
-0.3821491783516969,17.12170455231847,52.9305195443866
-6.678862944111815,11.87855520657987,211.20377034618662
-2.5121945482876824,1.6807154624843648,58.287593857803515
16.06775403685509,-21.74511410603622,250.57298984054944
-10.123511685344779,-26.802834329930555,324.5402524891773
-20.911313509973176,19.51935272960627,168.06873663364283
-36.46718853283688,-5.734327864457977,230.12265199694318
-29.781953358739145,-7.225759445015657,238.80421997636265
4.301233758475215,6.77364370203363,112.98273597301385
-7.295423334419436,-8.72330796880865,27.50928505689778
-2.8232161137189857,1.5963069374326109,62.12609344551095
-8.83963030984892,20.082302713530403,283.19288040922766
26.524806184482458,-10.9160707247019,98.37759985405197
-24.821268404864846,1.023917491560866,77.44922853198248
22.114449221286193,-7.044044068660811,115.2793300921795
-1.623472382348641,6.519090896362606,48.617473997605664
5.215916141447372,-2.1414447042584865,57.40897487192944
-13.594760856103896,-17.2027570140261,258.4537515336939
-2.829470107512651,4.9631876765720895,-393.3353122270175
21.6825307217676,18.35212428164075,384.1946211994524
10.364319859366342,-23.30864582476292,159.9559730506101
-19.291044051029434,0.3665169174757381,22.450461294052488
-18.01444571492359,29.889002646029297,-93.42213027130671
-32.85027647049163,-17.40371629415642,-137.47216363725522
-17.857679879956176,3.3538091694233616,259.2576137592155
9.468906253662722,21.840051527406313,554.322873694589
-10.357138199957468,-31.58242748435558,-48.85400613220466
-13.120790999447493,-29.26557660581326,-71.97934921815587
2.554734443028051,-15.97378609589829,225.00335640054303
-25.69028915357333,27.65896717704581,105.62267203784697
-29.18009597678012,11.201983969612694,96.95110988864775
-22.297049717758163,-2.9577069453620615,-75.48859664552634
5.881025615763002,-6.964072362846087,365.03073375300386
1.1480832513208126,3.682395104036544,497.67906071418076
24.184232855144266,-22.019463120404,-161.06138009064443
-15.537953727287439,11.032896850191493,-170.6372478222155
-7.992721671935543,9.580501256716296,-227.72557026685843
-16.993092340434078,-2.394606657977484,68.456772884802
1.0317447052432258,-49.43941697605564,332.4589400306661
-0.8254159958706341,-35.751799249664664,19.574436443058886
17.58468105770412,-34.785294309180756,3.5654494927039195
18.51984802967101,14.03159994564226,131.3212606367543
-20.02666391744489,-9.172636904278178,130.43225271484434
-39.642577750315525,-18.355192740539643,216.16210218412243
-26.533486639357896,4.496495938863564,435.9758655842367
-32.58761212179842,-23.758241292856198,300.1141934725281
7.939488701107004,-11.625012653621752,461.4837555435177
-44.16411235523587,22.763517389024983,-45.12690688628808
22.422542222039148,-7.874558557478197,273.15324370614394
1.1435738645209046,6.038434337746431,40.880841238091506
-8.629117820833732,16.703026511187225,161.21646984960068
-2.912541282109928,41.1896647233122,-26.16159761287453
-7.415777238443218,1.6815509334006917,-20.25335557237618
18.034923946687776,-35.9664253028714,503.9393151770614
-13.841968958585216,-18.623022700076902,316.2442554144296
8.393475130678015,38.793892569123464,-69.95451027945893
0.48099341530655715,-13.258114496708044,197.39299219204707
-10.224645600728957,11.557103856161223,125.13855673118566
-5.672015679041964,17.24423065371567,-210.25154776955605
-11.344080425819332,-6.5639016168271835,-213.0691069198362
7.107658709869033,2.4044235098714535,252.94234747340445
-2.1552316991355647,-0.5671763861367155,219.0383434947301
38.94472602447235,0.7816880095750425,570.0434589870747
-14.309815862222841,-10.309854557954239,102.87533434367346
14.738758218391371,-8.090191141676028,-103.28867291439931
2.702572374175625,7.877128592998728,-265.62475429682365
-32.136748676895444,0.8892595189550092,12.159313555599113
-0.35297252845528737,-17.87891190737454,100.44011909357774
16.770749461115887,-8.335820386863412,-136.72087423642733
-10.269238236781908,15.722128517983435,304.9803263381166
19.01120045986827,32.43257899988291,173.28879054742458
-6.586555634954037,-31.155338292312727,-36.98728282019337
-3.1688510949689923,5.328629045957561,-65.75471640304596
34.7199479467721,12.904894463273703,69.57808020102462
11.455783048535466,30.823569383548104,298.66724565939705
47.53273545239912,-7.283277693924606,-325.5166707784323
-7.816261480104804,-7.807985506076332,311.699342557275
-10.996104599017972,-29.438281761164635,-17.69627748171436
19.065529226757427,46.11041689435115,-5.140492435679732
5.91904416282112,25.0595139833128,61.21763362226769
20.000761871542014,12.895785171483187,115.93987321474958
-12.73124879451586,-40.056500433558824,175.87569362496134
-1.3218418515251418,-32.26443416453138,61.73970550129197
-29.589931886333343,7.581370422949284,-88.04274628535535
12.963080215139426,-9.352741571484477,-22.812825097450457
-7.003956899736327,-33.83854662488733,-214.65743773416347
-4.042190000399284,11.532381225482322,81.64415220740867
-0.4033207995744939,-7.978851569486604,56.650307068622084
-9.495077559630795,5.398726520939943,39.35903779369085
-22.031350738561738,-24.663546992218336,-113.77584168770389
47.97756254556206,-11.244625897062763,-241.21463066374417
34.451179652894396,0.5702864003457663,42.57237257284536
3.314978831637973,-0.4926315398551592,72.6376183613158
4.30063408207603,-10.216453122662108,-25.477655550466125
5.12346875692614,56.02472752507949,146.01393877726008
-8.006078609371448,29.49131891609688,160.55354412321356
31.982465343809512,7.738484306952924,324.1437127323547
20.814843998857754,1.6636503358778816,-3.9342298710810013
-12.670763874756542,5.592929528511725,-7.271348821445358
-12.93685869288934,-0.5922957056512845,233.84197843816574
-16.936394882607924,-12.799074902781884,-201.24550292547303
22.324824814187117,-8.506049769534707,-33.87380115383098
3.860040661662276,30.26005932560198,354.62386641015337
-13.016354862894525,1.2611703412924549,91.40376833750526
3.896792246932668,-0.5164542990045906,157.31888450417568
-4.660411365661446,-17.918818076102117,-98.95986161945163
5.4919749998206555,28.100537075314627,-175.6077684829907
5.1769443113672615,-4.7294414195494285,-163.8537668309213
-9.157117835752171,14.457443776192008,-106.09578725824059
12.678251311596117,-16.74058693408758,-27.878723155884046
-25.298483485570248,-23.93551829181069,-105.59574221508203
27.907763528912643,-21.08292192122783,178.01166116996282
8.529866034708874,-0.3392518492331284,211.95817300207648
13.510175064749967,-5.543131849407184,47.91138931316343
-25.756345626404663,-30.08687897887411,33.3460593323023
-16.526305340402693,-29.028823360064564,151.96834185383761
-15.86392692763085,5.474527293142776,-178.65088491508595
38.85898678569617,4.4833090420221176,-135.04492624135796
15.35649995335217,35.907834854395645,-118.64259671300798
2.775717677006429,33.2445744147312,217.81586737021624
-10.38201693333927,21.095239777084572,-322.04059375702394
31.168644292288935,33.71421088079364,400.86514949679287
4.600449781591013,-14.777006847695198,277.147139700858
-9.820382866553379,13.678649572274628,123.00644928119245
19.206452726134522,-2.4087177840640805,207.75074555027174
-5.348110193347986,12.90564570895141,227.51603437136595
-24.798710149209974,-12.50136641121442,311.1724635855651
-5.3903356755282825,-15.546156298435903,-32.49505653900127
-8.280067159061304,30.680916732669615,264.1076092753942
-29.856540194008186,39.06883233313142,-354.19373311558917
-2.0133438998468134,8.565536134498133,460.7709832987168
-3.9302713033252394,-22.99914372044128,-95.3034720835443
25.133277825936474,-24.08504069851714,-168.819470610422
13.523826638758369,-24.857912136899568,167.62609331441257
-24.661864342776415,20.040088262676306,-121.19364857127314
4.23994300009373,36.63581580864239,-98.29029993828175
19.924341178090025,-7.981437629634097,370.79520425127663
14.975151622564498,-17.377637280561846,245.3138567445859
-19.299396780813556,-14.04241225455602,96.35120529180685
5.9317744879196415,9.398410650892897,578.6527921408226
-10.792481863913107,12.821542414672617,-129.9332664075766
-2.7076414196850758,-9.264054124163048,-210.0871939077415
-15.565650939897935,9.54374704342224,183.64231552878732
-6.500607172208166,-37.65423395696271,-3.8622024974194176
12.204454737985667,-13.501081605840605,22.588667185663198
-21.22232012443981,34.760260407442935,22.689886901892905
39.7001381924704,35.76365495037467,217.76820760331572
21.233199316784418,-3.761886991501191,-303.1618521983911
23.30675792678235,38.57588157289601,319.1946953055799
-8.082277886143483,19.371005591003872,308.8462428733965
-18.319394197331277,8.389989148169523,70.85290022867846
9.13516097255463,31.92079761333167,53.652752034202
-9.306993641575337,-4.771949732937259,67.93004236022006
-13.364647056647254,-0.7197570579447647,-129.1909969368568
-19.308221573834537,35.27353387789285,423.28313703086945
-26.222638577342092,30.510208032805032,311.4688928644018
-16.057160556474475,-17.104843659826937,-166.97092619708008
-57.27740141536822,-2.8826220052715867,177.03191953550117
22.578982879604187,18.58617204344426,-22.863061539002132
14.250845464299434,17.67894181486758,-27.910825057117265
13.857273590832854,13.121650225887597,358.0450055031551
26.83863443892367,-9.554154414143495,-277.94288847936633
25.72122450148545,36.54957892510027,-98.9000065821221
-6.215757708735058,29.306967323618714,208.05656978860247
38.52511233080093,13.515985498028304,130.04093757983009
14.868982406500603,-12.023926312042235,45.81012190304444
19.11982543071493,32.82277391946012,233.63456408083852
15.081257519809935,31.66812757993489,-88.49862657197599
29.422357262449395,1.9089208477827606,142.2424135649061
13.795125901154767,16.51521241516251,3.489336628398405
-50.58320817294359,-25.791048881526674,238.32957162292678
-10.099627100203918,20.405222554660497,523.5713385469791
41.86472113792074,18.844536065937753,253.28028666886843
20.41340432502117,-17.226453703107786,253.4225230988369
-32.87486897541838,-8.95075030910809,177.02057552822336
-13.524379617551695,5.29887757049875,13.872538768386818
-3.5852095774163315,-14.622762891060134,-273.7338674469898
-27.242275317328684,5.177703686327877,-93.90317289637468
21.513801504087628,39.80563842008655,-0.23570700799398026
12.470215238479375,20.61648320750247,9.107773993476926
19.66999548047171,26.912783742395597,32.86213718438766
-8.95686312994269,-34.38375435417178,-88.34050877743223
13.272032476144487,-15.219140619613182,338.4813886871775
-5.668375818822932,54.783587874611115,122.41332172718187
-22.707048255555403,10.52918367040484,250.36844319082581
18.098691204998662,6.525905805418079,29.694905813241775
8.190275313540226,19.835842832660845,403.2924738695994
-9.398739130419978,19.42993219322776,217.20347448725522
42.37159430251451,-14.661415441126227,-171.77644906173595
-19.205261489477564,18.175224714927726,446.08400445219166
-5.628256392211297,11.870862291162734,386.078317467477
0.13611405562263418,3.8488573129030366,-133.78723700904476
0.2686238893355184,15.062297503503583,-76.59247164676873
-28.224077149451546,-14.270473747530916,189.0093031575367
22.669020911834302,-14.044201143685038,264.2428698989555
-4.058804197702001,11.024927186435058,127.93355591103277
-28.798008109550576,11.709016589441067,-172.36612975517158
-19.53355903020562,-25.852531976733722,22.92056012523763
-21.2043505200062,12.491032340963976,467.0327191170651
-31.384302659437356,9.860740885164443,-259.44271029971446
-19.47937307083223,16.686604777826084,-2.803519343674594
4.7801497917640585,42.2230720661187,39.06461404637738
11.880164320685607,5.365865744425758,-73.42215767062041
32.06539060236763,-12.019684274909913,164.865328425748
2.115709267756872,-47.26689569913131,-74.27208653791462
-14.411713456708465,-1.645730724677708,117.71249004773625
-12.58296624816883,-25.583501635871478,-106.9282148849791
-10.442696437931978,-19.83251358813799,-625.7321581926543
4.463677914003428,32.03558741139317,188.44156166622426
-1.0577596478136089,-5.002992532186332,235.35271090816988
-16.256862823876514,7.8180110472596,-72.95943197974037
1.6459627814388036,38.09860920047453,-58.47603500884844
-9.073894186941532,-33.48202089661661,168.6915986887116
-9.76934457273265,12.699126515106043,407.8601075432916
10.600685366306784,-7.643803852970851,244.32986939671946
36.645010341413816,-37.10467834708158,548.8266202859857
-11.259763058657569,7.326985197883315,468.1905447359777
6.701324001165634,14.309478647806927,-316.24114163849003
3.5443191561251575,-3.056479338642796,-215.9654260482809
5.190075483605176,-12.10136264682215,-122.63343736676475
-11.08532182249897,-12.127078969340289,369.80331365120554
17.792887364080226,19.850554023374393,-54.10700365376047
8.128359082884042,5.970433761719644,54.00376442304956
-18.373473696828,-4.761371756388113,799.9595631020956
-25.670892784206316,-28.587292127015374,115.62000635009528
4.701982052635493,-7.796336573687235,5.767813145200535
12.096123877931769,-14.7582076018833,6.744045220754842
-9.086243481936322,1.9703073861158695,-120.56418350912986
9.844990003651585,-36.719432045556914,473.0483872218593
9.952902053097066,-3.5102183262347726,-127.66088357361804
-19.59820275064835,-32.47525674486203,138.40983204215604
26.64981701280062,46.50490693493169,-163.08276600599692
0.9698707229309211,10.819003260060438,308.4270729163486
8.953230525248504,-27.832530696997114,164.28702799485148
23.664142726509155,8.272429912058563,301.04755526679924
25.93790973825098,21.677718695374757,275.38478131291794
7.759589957785828,3.156578232829995,147.37207874743245
-27.881512268254795,-13.752723014901878,-254.9966924272814
-2.396201578926493,-22.79932079935579,212.44287412428582
41.74037535439485,15.785831131622617,129.02066813959996
13.41800961502855,1.749469962465699,-3.996647255672414
-20.886368770828106,27.887457258434367,-98.86889672265852
-20.55015539939481,-23.046683754873676,158.5695407114098
-18.137867556875655,1.7233932770755764,29.017142105670956
-12.146968235732697,31.772950056325982,32.86485680853552
19.026379818553817,21.367065756210394,-115.30834313692728
-14.1718513199523,23.570972907276815,9.37076831981021
11.061270760002678,-1.7489375652225645,38.68126721334677
-11.540681655258831,14.607484159475668,14.692826025987358
19.30967026352288,-2.997655677524833,109.79755250853466
19.300106003614307,21.750118852934904,199.51033712941455
11.51276772150531,10.679320742155273,-177.02878787839046
-8.093230480883909,-14.453255291847944,138.98983117986194
4.630249189617658,3.9268077028424972,77.9640844055163
42.09268321444853,-50.20705337090575,-260.8369101992613
-11.763086120370085,-14.27763863046762,54.57099364083127
29.477024407634566,-14.343358810842101,-32.0144061497063
-13.984095863783049,13.125973650805541,-32.68900725060743
-17.682977939295323,-7.226661697257804,144.4546852176145
-11.251773980314319,-0.5129884077480302,260.71431347110877
-31.333816133854544,-7.922021053613893,42.96011632885383
16.95262980338096,44.07531428059792,-105.25356769633544
-16.404635365609558,-2.350556806394627,96.96161541397476
0.8766552616541051,8.910019665024455,134.56967004985387
12.437477288038526,-8.156319542744471,150.57178740929362
4.435299090006927,36.28237944272595,44.56188879258448
6.166244676227784,21.497790810325256,363.8759594299346
-8.676000526079807,12.321218650588797,-47.67707452766251
-7.543732065572788,-29.913244992697603,106.17824213624475
0.24560984309320788,0.8485426155382658,-48.428738697150266
21.391477712817085,-16.348173069819268,514.9545095089961
-11.776748390998952,7.460430371823598,480.8289385122384
2.6380320955227194,-31.28914693630637,133.32810861661426
4.463323837027421,-29.741302894909644,-3.2726144180398364
-20.865778371714626,-33.08479166041937,244.3782721214079
12.343798876848117,-17.37648689147182,201.30931961499914
-39.13914108667664,35.6966341878694,244.10571567813568
38.640178170910055,-22.86233704278359,140.941384898885
-53.01258529254871,-14.07166611629025,-438.2496238886839
-25.13723424841317,-35.97024115680503,-131.26932054029683
10.419606011800742,17.533252854320235,-191.1262832716875
44.07055883263332,-22.779291754678653,157.44710501152528
-22.367039241471055,-4.902509290666808,529.0636688672157
-32.8674266950867,42.05472991502493,187.2427798131508
-13.045496754113525,12.98153044048956,349.91497483150584
-21.453480032492198,12.128604708697619,-33.547278330780074
8.130616012034672,-2.58528546491621,377.2430496305626
13.556817590012525,-4.978368656148086,264.3782919367653
-1.8451954435257933,-9.117308261159403,-105.3360298822239
6.974307764578746,-13.99990871050008,348.63878103423974
14.887940521886886,11.749423152181002,129.18713519806178
8.65047925217742,29.838804401329455,483.29862775149775
-18.0844843922807,-38.838693935139645,520.4100772371605
28.070887647038635,1.284325666234588,103.51293303254349
28.215186589665823,40.002626802999586,206.2929268102891
-6.187440062149174,-23.268014961835885,392.9748913512386
-6.809689051300171,20.708911059459435,-1.0960760344850513
16.10718222269426,-28.28423494789402,61.90470403090774
-38.507870088110685,24.74657962786643,145.08778297513047
-15.530433617710438,27.230815246686355,213.42011125172525
25.73443719311316,6.962981040825334,-5.5133613108849175
54.01540367910276,10.198279815915674,27.315414245078244
-8.905980171914557,-9.21544999859237,8.61612761853209
11.250890088579164,0.4716380044915074,388.7810253201814
-8.825593266522421,28.29723800236572,50.99758384537379
5.107353427331551,2.3530705250831425,151.7251266275071
8.964001034593464,9.489404756550996,265.30591296745104
2.908440670400749,-6.523128373766472,547.7940443661053
5.651882209575413,-4.873827852992526,185.31094687774646
-14.796034786365638,8.406029930379178,426.7595912783734
-3.8361285532304534,-13.30293717045054,-193.89376095722878
5.353269261932352,26.46539466985101,65.96797165755868
-12.30702800475825,-0.9633449292424313,146.95653746539784
23.065987351180347,32.592833818694295,-97.008557431074
-1.6844483865127278,-6.2649579525100485,362.2314864258096
-9.10172920989072,-9.849264729908937,206.33679018986896
12.91541706989753,13.381530216838701,-39.61486589360351
-23.534756540262794,-20.113750520177046,-324.1940375145992
0.15067471545107355,0.860052069289756,369.33243256479545
32.73757817226751,19.912406304183,-65.46494698184071
29.180712766016565,48.517863030866984,275.1305341159457
-12.792084132662877,16.833729574304982,175.95461678177764
5.574871196268224,-8.83576026897874,96.33674351259363
29.179690428484456,-26.409998237384492,-269.178188174983
-10.430581681377042,26.564261396379596,268.9757868800539
12.12397854432648,7.858477469466079,347.0841300611897
-1.1809717258237122,-14.485304553559226,-69.2431751874995
-30.55860631992772,-6.6144562330062495,-193.1143156933063
32.201442755440276,26.94988837652625,-281.7929054376501
17.98206133251461,-28.597323466672307,221.84688144219405
18.69702720526608,32.19454571133707,194.9835314937452
22.814927639005727,-17.993571650702922,45.19267317954273
2.877311963394776,12.66469665411741,315.5355672520093
-15.06050932207987,16.706101299537185,-407.40722073091325
12.722126576169877,-1.353436940405624,202.64036911830672
-10.327262391332269,11.668440914081707,226.59425187755377
0.27407128791808905,-24.41335445323768,267.48011593170514
41.38812371265444,-30.515412343698586,-114.55683779686677
-37.54672194861058,23.77506335367048,30.290443173279485
18.848421973294077,-6.697832405516748,22.092572862905442
-6.7369936489661475,-51.11696453068696,-233.79713399264278
28.387488451828826,19.082621868586507,61.227003894196585
-16.94140532710491,23.914103095095726,731.6970418966846
-12.678277129213303,-6.837197960460363,186.2252575920979
0.8053916539296999,-23.67003702579623,-15.963430874178002
-4.888480327085032,18.508334740449058,-1.1882653195411308
-1.9894521892219663,38.92343255226847,249.14803251136487
3.6153612418918573,14.484602659777845,215.07357635652392
-4.632528087168207,6.422770772581702,-128.35720441828983
16.506008744976718,-18.78143796480009,-93.34915337169394
-32.95979986069787,-10.539140518523078,77.08778103310539
9.054216278238217,9.397337343042874,310.8499412495558
10.985007829622619,-0.3677950223746584,-140.58530553399623
-12.61829104217545,5.284219171214532,100.0225982009737
-7.63494662995822,14.809134601593797,276.57586513852664
-1.310691602459237,19.4160772169258,204.73350588260934
19.876387910945205,-18.235396260790203,6.812272814265796
-16.75598184049737,48.95743835267635,242.12167475907637
18.760786696810683,-27.26511772252063,-11.99740069959769
12.40659014699482,-8.934420688936967,210.08390598664923
-17.481646038242154,-24.293531111901405,29.94797287949885
-11.336339281692887,-29.123725853211923,334.24119972957715
18.86459076932042,6.9108136040022465,133.69868712992601
-14.574137300537302,14.756741439777672,230.20229317727228
-10.96848950300797,-1.2886763501089864,151.06318216265032
-35.91390628112066,-14.686042800066216,-65.52585079362646
-22.59604521174499,-37.36435200416162,81.38730905627423
1.8966159458417908,39.88505787086136,501.0842938297748
10.980607055915092,6.614336560910364,100.57068984903006
-54.67358990953353,-3.3357150005795075,437.9892476926803
13.740953051840595,-16.578550051677418,-46.05461648977584
-10.679753788712532,-21.21829918486039,-39.82054060590059
13.224014670348371,-9.041568904225056,-62.73859166740766
5.870478578599366,-8.832422319716112,-273.965733729314
-1.6960754075422888,20.822586265976252,-121.6783899940724
3.552726670886928,8.390694277391075,-37.38518379344262
31.43655962797348,28.56748765128616,78.22343401604971
23.34492022240868,30.53557371413806,-74.91200374318976
-5.493328287366701,-14.63587774550434,-54.6243699454387
13.44799892766309,16.84093108536886,18.850371851504377
-17.055806201865128,-1.0799652021264348,79.43166452867595
-4.760320800991687,0.24779662583195694,281.4154200133975
-24.534090786527774,0.6812263447384566,138.69060429928234
-15.38805928084944,-18.18399929160583,244.50385064061965
-8.5573776591553,-3.596498960555183,315.4169960753935
-7.396865334871304,-17.565257664947328,238.75817679516257
6.333078095395551,-42.448252741702525,246.7068848697317
27.8287915469922,-18.29249825431976,0.5848346494397987
36.764535599274325,-2.0783569665488555,90.38619613628882
4.02654610690315,11.890126087031732,-133.80990362990923
-18.089614537426502,-8.851499142266388,304.59183615019833
-24.479267932505696,8.738471685522466,13.864039780288508
29.86650653879639,-15.74912072011885,-341.66906453671737
-6.12409512753394,-13.036417540149634,94.16857178767549
0.17118844828518448,-37.04828828344654,277.5567594167967
10.046028691847884,-3.0194781907240404,6.7102392898005405
29.61401044625875,-25.42192570024668,-254.89120254664954
8.50998153832291,23.330996665335256,401.63792313375905
-3.5330930966310055,17.513294344328475,101.79633890783452
31.357948601613735,26.991137066014097,60.338930239105785
-12.326235546129853,3.219740191406772,-248.41855720185288
-5.436528139619584,-11.195169318145648,294.7508385317467
-23.924530533859656,-26.46367550994483,34.5043090446657
1.8457092005878946,11.32246118937613,-213.41396942231165
-5.5551272551952104,-28.11620981450116,385.39845163558715
-2.5817870619655388,-32.57415273487475,-319.60451161599207
-18.109925149073792,6.275712610092027,84.28035117924169
-8.146647825470746,13.693528280937127,67.56304774390071
-35.884383597382794,-8.903692727695887,-231.00172242196362
-20.460316268897444,-0.755093605088968,153.60280925187112
-26.044271431686678,36.94126214693646,2.0933860212624182
-3.2275642731388405,-12.211514763651252,17.692214404028093
0.01800689516606435,10.637522402122475,-47.597777017276
36.077484264144985,-19.329727371023615,282.1539431136245
-18.343938706611876,14.165018752658645,171.33358646803657
-7.047000289621534,-13.060038569806114,-163.3258394104459
5.938563466844176,-8.287084798153657,-33.6167141814762
25.198215963978534,-9.149807050036706,108.64338099570283
5.422212220902265,2.302581993924094,-420.1261776501417
-32.67082717906127,1.3895662963891133,40.82131710387485
1.5974776985129637,-16.90251687152843,28.19611110606934
-10.81728487865613,3.467306984779967,436.4547984949217
-5.845163565807151,-21.31060228040515,691.4794158492307
-6.075936835936648,-1.8175015888292378,-79.79743704721196
13.75986279854824,-22.51982987229919,-95.46714923369186
0.08566805587393651,5.284325313833894,378.0041938998042
-3.6018752726574563,31.543069126976544,-163.80465515348993
6.950169355407456,1.9078920368003736,257.30993389850585
11.211378435525761,-1.0041945452485406,-10.104973900710036
-31.367120297512802,23.254254595031682,198.90156183994998
28.290880300668505,-9.732566831477541,31.79537810404004
7.610396846914226,0.043561154093611346,212.5623812046263
-24.283667311880844,-3.3361381648668607,130.61092982740286
-24.28743249480579,24.82508995859813,146.57140289168433
-16.367274214011033,21.665015536841793,-57.254426610336736
17.244504844368297,1.216630878493261,186.2721424884318
13.730255822180597,-13.775475980403197,129.06196374094807
3.6130823866176702,21.200924847759886,-140.85011633767346
9.659948749957945,16.737594081453388,95.57354037899279
-10.10509016371341,11.996336691517504,194.39746037737712
15.485905057805605,-19.646781139439252,-114.27068738722988
6.358158650700764,10.979752191108137,-170.09649406154097
9.182272390674816,-12.711293571394709,-102.09231368295485
4.732559840075348,12.733414841069665,263.0520328461704
8.158750972472525,11.045382271422902,168.9932708161644
17.0229026727991,10.411472135176002,44.24529114569007
-19.858152947950153,-7.449469781344197,-51.91354012476566
33.780573427990724,4.11842128717604,523.9288826934219
16.79059321615869,-10.96264556797921,399.1543726691815
-1.620153177739033,25.04069227064141,-167.04058384919477
-31.784040310783695,-4.160763894450468,-24.539475632424043
-19.94873310023493,20.205824356106913,250.18441335078927
26.45963089303796,7.135242987225935,308.86913537281237
-4.120138015475975,-3.4132089665993712,-210.84514454558513
-10.348546519517273,-5.686475777360523,-84.70888311962568
34.27786253759001,-22.152945252103923,-17.367043362761777
-15.162528301904754,-11.181899400507124,141.02884660813166
13.995792851471913,40.77376186951771,-11.488768738052826
50.84262959770075,-32.66486583683215,2.601296103458438
-14.740322600198217,-18.725731568144475,-214.16386648917103
19.751928247052504,3.346450607545741,377.9501262535031
38.37035195424397,-22.22842757674435,-406.0596348403913
-15.733578638502513,-0.6052534038362983,-207.40137019448548
25.078879941017796,4.4497298845497415,299.25727339193963
-11.96904397561844,-23.49277159374133,170.61201199411556
21.592046712226747,7.243196855042125,329.9492284920225
1.093073995667152,-26.408094676766083,32.902863815383085
2.950800314138214,-17.222481678396207,315.60743495130214
-43.15271399946607,26.73482936245999,-288.7184754364389
19.84108599981574,-14.358073444443331,403.28389772758896
14.55901975979397,16.58875075079462,353.97911540886014
-5.507842939001991,-13.412509382814385,192.0985451582563
-14.000369563245933,6.064904510072212,-83.25483470068647
-4.732078444692727,-9.323414134142089,353.60387792619065
11.678515194814967,0.5638011401875995,100.66620595674233
-12.809816375808163,-3.487740881417424,80.50956442974326
15.946101593207175,-22.57713801650988,-228.62510841126135
28.08288957177973,19.66074345246848,213.67780833266426
11.959474792739508,35.74580402126876,77.8883848393066
17.69159920819884,11.44373953634377,62.27899772468581
-22.701822254084355,29.011966519696877,355.44112979608764
-10.877339243039732,-3.01431740203506,197.43496553142222
-5.39411664439561,2.8630325075418046,-56.13677940315006
0.9103661695768732,-20.52055306509596,92.43592260100961
31.97586322126769,6.1663535382993375,37.54734835990286
7.390964815658395,-12.95955702675096,76.5632440249967
7.708894682731131,-5.688878931858376,297.8412710688657
1.3153591994743246,-4.099131547731776,-29.84218504597314
14.147552203085997,20.504087881743843,239.91398698252289
-12.987611306914395,17.151832566427768,38.14891761732076
22.8630235081336,13.190116541047045,198.12640371705197
-14.001783815276836,6.295657611301378,-10.60056899942792
-45.0117134612543,-8.72577179029252,-118.81542065907297
32.12846837648283,-18.74147004062648,-58.45038055205151
4.266761857539168,-14.934868183890286,-42.98227296986164
0.03943767116552299,-43.5367993536738,162.17956477602917
-21.931731516594315,-16.9689340015021,94.7595098341265
25.218606589385608,32.07351658577769,259.5326517901857
2.3199876133566986,-12.492156398605655,-275.3674787770534
-1.8126750647890764,-0.5582658347863874,129.04938576705695
26.21143885422693,2.3957838388627426,233.47727809828137
2.036929761114333,-37.65126977292646,-69.96433454575978
-3.1310984599773892,15.156778784178664,288.8519676892291
-18.444156956827314,24.203508601788293,122.37164578866988
-3.673873978961861,-18.416225819917425,355.54911543370343
19.955268931436493,-4.322523649916842,-50.593023680821176
-16.35902607685958,-8.806845459003407,348.13621959001716
37.401134105844754,-9.312509286550148,398.0601370435564
7.739595003445558,-3.4764329352017294,-65.30940118464227
-2.2961502415125565,17.19408251660181,53.559795461728775
6.800638197477823,27.61101636870746,205.19327908946596
0.11043206348008366,5.268233444389984,322.9210943724114
10.81549565752895,-21.347191268867192,-46.61620852511848
16.196316318868426,6.321239226861665,-196.77407396701767
11.210659103677848,19.172408309368684,20.161571753049643
1.5772781027684237,-21.11767149823388,41.63730677502456
-22.76536038733984,13.705710858043362,244.41189691390318
7.709343125649378,19.124266288065073,-342.7728906379407
6.347941088024115,-30.522254927545085,150.85564034759432
-0.25929717937097835,-12.145075346060498,-175.7812266552553
24.574249633966758,-0.8734795549446963,143.8338749205534
-2.741358209325195,-0.2746508784937796,-219.10196292313867
-7.9682522926773505,-16.86657852151526,312.5557853362775
18.211633253430577,3.3258178439644235,-183.5991216911437
17.222528959719405,-32.05419389422182,263.6593530124993
-21.661492179802764,1.851731415960649,115.90102957091275
22.40308249434459,-18.646406662189005,174.93372786502215
27.51410059626227,37.18552813233268,40.47826931837971
-19.504762138042974,3.055658423835511,122.09379536489801
17.261790653351543,12.263083327340036,187.39731529205847
-29.116268883245745,4.722995513078686,252.16181820012773
5.913707996898268,17.353988360050252,148.77706410707881
27.094159673200476,1.898868610477591,308.338109060881
6.326508652948082,26.97217789766941,-31.51230882294493
-14.521502700488831,11.862825557688772,69.28239477915476
-17.648662562078734,0.1570043346577109,605.0779512136451
-22.45125262945816,13.250256596392568,226.38925330288527
22.91318550015812,24.727992319956016,-27.346346525556726
4.62658002888612,22.768563620065056,52.9805385229739
7.714653640289829,-55.34501507940983,166.4633255324088
-20.729777344869472,-37.05439928339287,-28.29689008035095
-4.310048839461595,-8.647808197386297,477.4890652517326
-0.9845457083382697,3.964597343246048,71.5054549306786
-20.43983564905892,-32.68965770264719,190.67508646600328
-17.39182565660685,-1.7717025780814746,231.11136932459533
30.33285553811495,-16.319396262113944,-179.97316261032898
-7.497268718363469,-4.489822101025942,58.82552063037087
9.760000625356232,-0.0788835440911078,-113.67504272207532
-8.227940934978845,-8.651741567153376,396.24521315517325
5.267701088231779,5.822103300162515,-100.10576786023933
6.975602142789822,-3.79702311101348,234.23699005128634
0.582029664515282,-11.673699070305021,-53.28489498011834
12.840828458994668,7.618089089317018,397.26360873594155
19.755521026238945,14.916923175065438,262.599885421585
-35.259430433064686,-17.323004905630036,366.4086166931089
10.083370661279535,-4.706176513684389,-4.827391417139438
-10.117400121949398,5.16778012165199,93.4864707543709
-3.204876032811433,2.6256033988239387,76.65644281483631
20.44044194333482,-9.61648210579194,441.19623616389816
-7.203388881086212,14.190456127422188,149.4123952627338
30.587170981874344,-7.574432685780135,51.76391025006189
-1.2372238463268006,25.557322034953383,252.08854894683142
-20.33737905221107,22.787767739384712,-128.7024167839095
-29.17389607160161,8.034364875473779,110.51298996645892
13.646223231508861,-6.635738420814043,37.49474175917299
-0.7754948923206716,2.527745315137328,421.6101964743528
-4.1050529377502745,5.987053387229512,-68.25488426456138
-3.8193441476559875,-4.7244026282604965,7.112145273941678
-34.71390369628291,-38.46391635360744,-208.0451020474522
15.523289736564864,-30.321331544031676,324.9539750569735
19.766017637442115,-27.206238836638907,71.1015358042527
7.043692109102942,4.396168355177855,71.97046140022535
25.05929666661677,-13.808917994907336,60.4407259886712
-1.2594506346988599,19.221452788198498,321.89836895010137
-15.58391039950553,14.10304719181915,-231.03264040603386
-3.5572257994897303,26.857151540198956,174.34591011090106
-11.194139078568146,13.758124756594041,80.41602948486445
-0.4229839649810093,-19.028363083729964,-384.81216553961116
-40.06843998001231,7.63621707703477,639.3526666709681
-19.651615471686338,-22.9700751105147,250.71070577346703
6.5461474308694925,21.01567914035877,181.56158156303817
12.85907180942753,14.204678875412803,66.75803282515447
23.042221774440534,3.137743707049209,122.33853047747124
-15.38312279904314,-7.015523954617999,312.08782462535356
28.30633690804898,-16.410707264502186,318.55786747971194
-2.9958774492270637,14.17578893803509,239.1416173861991
10.024707421725905,4.677115762045888,216.42169471024135
-45.682369393382416,-33.49337676494446,275.20779561758764
27.41679502201314,21.40763206547041,-251.7582838909758
10.960810377291013,-29.89625393335915,90.55247316597745
6.991960200752025,-33.29526330144864,215.80122630338076
7.23357707943747,-22.79217989866082,-277.0123632597405
-17.560266467133786,-24.180331367633062,223.86541451182717
34.942750628462676,11.839556069328783,90.96056000569178
7.835516965341918,14.50663351397435,-20.944323484293378
28.304121133758304,-20.679620977750268,-106.17045598048088
7.725121066695242,-16.400505859686184,-202.35852818710185
-47.47912711489768,3.2661364879591783,-52.69318845547846
