-5.324708882001885,153.83368991318983,0.2533078258871513
4.7092721523730425,-218.07723667342677,0.16066763179489874
20.356683844930185,-28.401790142863035,0.16181358914460336
9.65663111187249,-233.04620463258948,0.17501448722137516
-25.37402215389289,51.63607812340649,0.23520105447320436
18.69927120933907,5.026402913123134,0.21640129583353626
-47.57753583754108,64.21634637453789,0.1796491840106654
12.084050160785429,54.451542155928145,0.24426754027291664
43.4700240486799,-194.13790132062783,0.23718470988623447
28.968856887343996,162.33534740606046,0.1891443110190671
-2.967450696436889,4.250049443942985,0.19393659265500396
-6.835354808961838,103.147958306953,0.1880518803208502
0.021209926443631698,-244.42847183577442,0.23537014375619417
1.8738944207523167,52.76104336735708,0.17822871076032148
8.85598764794928,190.21182324674754,0.18768368558657017
-21.046442518936715,228.16231831182475,0.1999070132981667
-43.23312999551095,-209.43941609611775,0.2528459037043187
-2.910916850600358,-109.77550836262975,0.14212693980909683
25.86655469407301,-234.83157082283515,0.09534747969036442
23.057964804579175,253.38617108498528,0.23748429690018796
-30.086521302469396,63.67015191338496,0.09447993019146209
-27.39845141785991,-137.92944260166558,0.1676519516098622
-25.48521866278874,-171.53187639334024,0.2187902736585851
-19.78020753830082,-149.36969265659928,0.17971971380210713
17.563914184031788,179.48525285682524,0.20870626703881082
8.606862594131162,-133.27944615567165,0.2677384493408381
10.441897053399714,132.85679676107313,0.24251326758885655
8.6851331622847,-128.99043632385772,0.17494824583343285
23.217791990982256,385.7192353953472,0.17787899314986713
-4.368401977047581,-174.04613723135424,0.32183641902434773
9.72714654240394,-312.03590301792735,0.19525658243355207
-20.483142976222332,-161.04773512241016,0.23018431324259622
13.138704796582296,313.37137763432276,0.20239803109350968
19.189499408702307,222.7626933891391,0.23423761300036428
-2.1224469110992366,474.84743185085813,0.2370209932407405
-2.0003244395880913,-108.62706816096627,0.21922301231755206
13.514610418007933,-15.055500910626355,0.22911412441216028
-1.6709643413624897,-337.7217669500758,0.15992587452553816
-2.41190785417069,-126.89629388918826,0.23751470745837877
25.19847968329719,43.7789958052467,0.13952688607998928
-0.5083499374302081,-69.01202617251919,0.1557678266368045
-10.726125394199798,383.40496547028266,0.16568733549743184
-42.63947130414892,83.04394763643243,0.14929590806453372
21.976850130201882,206.45153605778103,0.21713995518825235
8.07355483689869,-290.6551068819863,0.21167217664601315
32.96274282412697,284.1464038745565,0.26415346864219963
-0.7775929160455364,-73.01625073194836,0.21966352067153005
11.728205562385295,256.66753104974964,0.1612856960376828
18.160172078451673,337.55193626332317,0.19329380867458212
-15.918037226120838,503.7009043169953,0.3164104732931568
7.95306497536997,194.84062556935552,0.24535325299371497
6.104758551995112,-94.26687889522033,0.23264769508906127
19.894769183355113,271.68689339096187,0.22359761549712184
24.816927573560605,275.3016787918679,0.10576224195851629
-15.016113387256844,-290.4376920996832,0.21829716624883344
-6.085652315184127,346.94610214500534,0.2208948345039632
-26.84549081729534,-295.49809002857415,0.24372681184754041
5.615567777936405,-32.125848802322565,0.10894683466755675
-24.11841961408451,-27.02907649445091,0.12578670888342974
-23.922767573249104,-216.93173200172131,0.127643280362438
-24.01299501992647,244.86871542737228,0.3375301844017363
-9.574872689155683,6.693063343349478,0.2968828680434897
3.1536086742848424,-539.740948331865,0.2500061519924025
8.536495716678097,87.32090785487895,0.16533375538648673
17.30270264543911,70.69908127353192,0.25902324988462266
-16.21005009000768,60.472898191145255,0.1658012844442354
-31.455698830403243,138.02195283328857,0.23250574445735614
35.81545840739288,-520.5684585000166,0.14317104878759118
-41.3906910588605,-238.50644135688776,0.2607055657227161
-24.831758917655506,251.16834356376637,0.13679025829897712
10.270731780608537,218.82261729018086,0.22677124204680787
1.6203205841701331,-272.4615603631968,0.22868778416928778
-3.5685003567778226,-215.45605007394317,0.17864604229448663
-20.39214908061499,113.65889497632563,0.2691798626983578
5.277302320033659,121.87868525159422,0.18496895034361016
-43.651335876018955,8.529349497506844,0.22824226025758745
0.08145380197905058,115.37342419707848,0.16974950104965608
28.502473512270356,-55.781637645515936,0.14386874601160304
-28.308972131434547,-87.30425292599472,0.19858309976471952
18.799337495506855,95.77434775316486,0.1657416938707785
-29.6713170139259,-250.05651384896788,0.09360560888717498
-19.921092489952628,-182.98767084114573,0.24817338061047717
8.524361934208036,-156.0577174730944,0.25374544001957033
-3.461750015811729,-24.741262512586378,0.20767441199337072
2.174693117496761,118.35098598618032,0.23583441095373645
15.463269274784118,-99.31537772556659,0.13644819914115824
-31.946403541850717,177.18322269562515,0.1952270423230452
14.467572527531834,-269.6595606966282,0.1646694378064812
32.9651666790024,-76.0461394352143,0.22070028223755703
14.124460759816873,232.79453846485595,0.26006545129528896
-5.472275743679886,-76.89625249328488,0.09929427894097156
9.882206316639365,-296.80151454729094,0.10563456271720909
5.917354806442592,-170.53884010263113,0.1858267395076213
4.051683647564424,-132.31513689872767,0.16100853393085213
2.579543425727105,-95.24262755314201,0.22505125276593363
37.77575816623943,105.99200754385791,0.21364075393634135
-11.247704187116689,-224.9970635938194,0.19368597482238803
-8.90052450491812,191.6178226133101,0.1939087580927502
-1.2722468227437744,93.49469023976098,0.14760830740939043
-9.178722679356845,17.44066331197355,0.1982283070005593
13.770926374374273,173.67774524471872,0.18123829783215048
-0.4960499004227027,-167.8163437767789,0.21796685739463978
6.2158359042231766,224.95984562315166,0.2727949692206284
-0.42405321864112194,-216.65200952627242,0.22463628738007696
-6.354626241922333,-90.23597865748104,0.1919368225189378
17.40393408469123,35.96082343031856,0.2228371599933536
2.3579015280603235,161.7248322591328,0.22756352703740254
-12.133325038873664,-47.73548620748206,0.1437297782706969
8.431929505345021,-499.86788993839406,0.2227568937651609
-28.24122405575851,7.710876087475047,0.1872920701862719
-0.26045620156350113,-58.69666115880568,0.19434976746018298
16.922422708966405,134.66006094010964,0.20228336120656315
2.5733503536272533,320.1057217669299,0.17194479544680438
1.9011385813789587,471.0574357004739,0.2576614020804822
20.42852597106117,-82.83962680445423,0.1969988895731489
-11.693546114855575,134.77147063147552,0.21242100911239586
3.975247709480972,-0.46020522415563414,0.26274620669927196
-20.68093450632847,-67.2301025564191,0.08990642377896513
-6.5757033842768315,212.53606837026587,0.16639408850012885
5.237477926752395,57.22126533467063,0.24742816127653972
23.38956467968362,33.52574440033508,0.19381464219496292
-0.6602703210793499,207.44693546804706,0.18240769146710503
8.36279654874743,139.98680864444367,0.19387564228059628
-14.478648326165132,-4.969885325609417,0.27441425636455086
6.8426027497420066,82.53949203203487,0.21279781586398677
-14.740556266860864,-181.3021443579333,0.20180939623551744
27.33898177763555,54.929196831154,0.1768358703265845
-6.552868910202383,-88.42682334269143,0.16578732576627184
31.704366707025944,-184.96236111122636,0.15953421144981286
6.516223935338246,-50.623007572551415,0.22302242044359327
7.652008134409042,-249.7475603422561,0.2841912510122869
13.67323761797307,-178.44342517016233,0.16709133031581472
-26.74966573944852,270.7249728734745,0.2542944501730721
10.469600818121567,137.79432868811196,0.2444300517004808
-9.415262371763722,-32.21805459680325,0.21749736863060765
6.866505831957964,6.117649228426832,0.16796327763935442
4.45957672847946,-152.4881601956388,0.22158310349727545
-44.96105205349477,-201.71161860050955,0.17720126768551472
-15.797152261937892,-249.10999721486294,0.03904128981667948
-3.35709445813957,-48.62131450059177,0.1990760671622838
3.2696891901078757,128.83796821719542,0.15308033786780598
15.825881775082447,-39.32053094177899,0.2669163986734002
-13.916718295606143,-245.5506772396623,0.2185295711765148
15.79797160730527,-250.2526789602773,0.1299938313017707
11.006397646219654,525.5031371079671,0.1830020689654375
27.1048018740133,-170.36022312613102,0.2844012067291827
1.6261687750628717,-58.45469115569152,0.14059922813281298
-5.890332333815071,124.1744790640852,0.17844061766381672
9.703530607392883,-162.8276893592908,0.2654969036637167
18.975261043207507,135.0360251167138,0.26591962485633636
-15.35842498876189,-131.79097775699404,0.16978607407358448
4.5360800554960825,-132.5878786954509,0.2700484262680658
5.412274326429873,189.4036586189321,0.24357716768344495
13.624694082400277,175.830744104933,0.21367718456002785
5.8620515336309165,185.097014815815,0.2564004497439761
2.406236105325686,-330.4149683657223,0.17503554377946634
-0.7395085998368606,-505.4732334010094,0.2861174631674945
-30.852311810635022,-267.4587861538952,0.19178486763423944
-8.900227509602086,62.40542822019262,0.26870833692713986
-13.077283312100398,106.33480397304702,0.14586237270695984
13.574637853928007,187.6658513019649,0.28594176560521406
-19.023343904777875,-91.91894796629352,0.2003244609442371
39.9364422412587,59.89241852990029,0.2188189778234392
-7.919386262471926,-163.80398859836805,0.16391968122325576
-46.523538522978534,-89.68078799763707,0.15903689455125536
14.009516554539323,48.40652270637595,0.2373340727155764
3.6657195483485756,-98.7232220833533,0.2091146247607878
24.222865543269037,-197.5507527045538,0.18000065128866616
29.22041080456561,6.374262759799283,0.17290479147973653
40.35447246239066,461.2827671028637,0.2444961894870435
21.870325722751428,10.631605617917197,0.2723595057798772
-3.1785837965527506,-177.9929786546291,0.17476772018315273
-3.558821984187461,-56.82171944292024,0.16796231151732915
3.723030710161279,322.6838407411561,0.20108917704316207
16.79048725364682,90.8996952223086,0.2743036334288015
12.141782447269666,-377.3604311433881,0.1857309893012106
-16.395059288984392,-68.26583216414521,0.1711839077210308
-5.573186401112458,-6.308531044975559,0.1497012282966943
-0.6741085748913667,-13.964040506285341,0.27976121364490264
3.758175611187706,231.7153203660483,0.2824817443183912
-8.421537954859723,52.768522336331934,0.2288292192474305
-27.786547795862397,304.9047328548438,0.24505146170912834
7.644569665486964,-291.4086735447042,0.24793355008150378
5.219603205835299,247.21708788461362,0.28376679331130167
-11.027178790554899,-238.1069339743024,0.23213948337369333
15.124950042411555,-9.666565458295475,0.19359189615703862
-33.38044322868749,-160.10536356542008,0.21701458240069899
-20.665297236268238,-4.849344189417364,0.15449393648521653
-26.450977817248535,252.78933360948287,0.16649683418736946
5.675741301579241,201.0210119815349,0.20992684457355332
-2.076191442506275,-328.41646608381467,0.12292207741832632
0.7588326982082121,-88.10351288540282,0.24785411340420077
-20.934315033190877,-42.82654314893223,0.12106179749002922
48.278505019049774,382.72033960974625,0.13698813538934365
0.8391597357003966,173.21749008532055,0.2651714336233856
-8.999734633771315,-236.04645056266108,0.19501048013205027
1.2918535578792492,51.457734621769525,0.1963829308803401
-20.246126980779685,127.35053736907662,0.26511119802380917
-36.651834210815046,-76.3470373287537,0.16513485216774354
-52.24903891492015,116.99198180290027,0.15722324146639613
-42.40490107653004,31.36897944136653,0.2322278052363221
-28.920893868987715,-9.957943799148842,0.11839061950348367
-27.599009488890104,13.041476229203653,0.20299932659026446
-2.6044744788901877,39.99160383560791,0.19416648539208284
37.48702453428156,28.15210547364121,0.2444772542155844
-0.26483483498333843,96.95957754153653,0.15631617651362587
-13.259927001731128,37.24290306952145,0.3051992482951389
4.461552472433012,281.019037653437,0.12827752391381522
30.687567900836058,-207.15192460468467,0.19716036620544936
12.906157239745985,133.64388068907385,0.31566292755112496
-33.954799780300405,-291.6803647342664,0.23319045413704245
23.35149610818202,29.55844349276052,0.29497337173224714
22.151721594506203,293.8556173701486,0.24322469016614495
8.83562954003106,142.76055462179903,0.24532246690752119
26.899499937813452,-82.02988296923938,0.20584550528291282
-5.155795030651914,103.81373658418191,0.18551053022299166
36.67507568925026,264.8060035221663,0.19849650093568288
-11.486942124304832,-235.59604702351552,0.18939509617965264
-33.77510733559875,283.05863895677396,0.22118660888662262
-24.05682789530188,-156.08166108919366,0.18485802448683858
-1.2133932632763214,89.04463853078116,0.23846223733923505
7.602898738052163,37.64092891614695,0.24866185876981298
30.925330891065855,126.23802671705944,0.25018580788679
-61.93653932316299,-139.23601025168108,0.17613819683096504
4.385058497330395,541.9508161605247,0.26779886080123416
12.999955590043177,259.2193413805444,0.16456692907985931
-5.390205193531669,181.56116597588218,0.19749441993656228
-28.057070616214425,164.76086968461001,0.23396588773444305
-19.758525818506705,-150.60256981971986,0.18345639765588387
-15.332413329902053,144.37497044481316,0.16658029728359447
-19.33062752382279,-34.26549719195641,0.20633524731512262
5.014671341571533,421.0586553756151,0.2930744920190754
-23.34685331002891,-78.59575643292503,0.2977873967592627
25.202306231530073,-28.929961119040193,0.15050143192795162
-29.039793077870357,-20.96618541093762,0.16133767715976371
19.040784998157665,-342.0935087379931,0.2476845173813635
35.16244713224896,155.33150728603871,0.1872368419221094
-7.841196860125508,101.74961720976195,0.19870979296159022
16.5074829202616,-257.1100673683624,0.2528662564447396
-6.451989107613956,-139.16834423490724,0.11461744379273843
-29.391920205691132,143.32314526802162,0.05730517081381198
12.335187382049162,23.20206619914547,0.16411008449399594
-1.2467039238231514,-323.9309786491379,0.1537722558095585
4.881676556792692,208.112391661381,0.1661267788000159
19.22665874883694,249.08434412352034,0.24015951869813643
-18.815743456409326,-67.18428967923606,0.2488821219232488
-8.771048535710456,178.50211961423847,0.14381756311139166
-1.1226903903149248,-108.13423042272446,0.232725438315445
-2.4707055531343265,-113.68861581207585,0.2667581063020237
10.123986874014948,43.03360548780112,0.14654153809250736
-34.11381892995176,-244.42073055816965,0.1539056068118692
13.619191512637816,132.12012949581066,0.2681680030526073
-4.056826430469705,61.14007726932999,0.17051150053602188
-9.308964609124704,-611.0453971435119,0.1800577844786087
-21.979368745772977,158.45302706083294,0.1709864711379405
4.276976741789147,-210.49550041476078,0.2285343441808487
-3.6292470978252487,-120.69651575376076,0.17884691226560226
-16.997108443118904,253.70359336682844,0.1301686008752117
-13.15258255442102,154.64388273439965,0.24299485755964917
-40.11799682887654,-191.36970083977354,0.29117899168972194
23.1838177175745,-145.6440515856805,0.2285497948092053
-21.344651332422405,-185.8071936231413,0.17122436312888936
12.11171806385728,-357.13599944670096,0.24357493682360837
-25.503188725923103,25.232810895005297,0.14335857705636162
-2.3521258090182453,316.11522550906085,0.2131999031369183
3.8703063845639156,-350.22525226851553,0.21271752162476598
-5.7261167764481105,160.5403722987379,0.2190313512073605
-1.3825575345098942,0.847065816885705,0.21032582730403102
9.00008916645324,-6.400929319419865,0.13293086825316572
32.86368329733297,-63.300159170600665,0.2108463568029269
4.921687939343143,-415.6655133993621,0.12921993342255023
3.9562195109096794,25.92597619186433,0.263356631728284
-7.334047694501935,270.482709748328,0.14350206745813437
3.8645764318449745,-236.41338705012265,0.18247339554257755
-0.6490288412986117,303.88326014213516,0.18573253616754587
20.47849287253378,64.17106427068208,0.2331696037720084
-5.45868241008172,48.3851078572175,0.1404991226614128
3.1767924690301674,275.2089974621759,0.15995416132431042
7.9578984702787015,116.29155797878059,0.17871084669507842
-7.803445254727087,305.33091670021986,0.13240499604718348
-3.5440956708153317,-154.21959353112626,0.2516458056987856
7.512530891892486,69.50898334262249,0.13990242578093492
10.020687131450906,-30.719646827540576,0.14658512974922322
-26.60873887358226,109.96377767741706,0.2631770666165606
26.33777075484143,210.18233407838633,0.15676077867881238
10.494505307559388,316.4350810118427,0.22677081598474363
-2.394246415051297,260.4995149296263,0.18348823636191294
-2.334037127320397,-98.21289644514937,0.22545269732191228
-5.603116441751405,118.86808649215202,0.17151179018664628
-7.141606458660719,-296.4530549918693,0.2543780807437909
-38.6373349398948,-29.439640290936286,0.1389151373579945
-18.55690889187565,80.155917626425,0.2855487047423757
-11.27877900101024,103.6747678888193,0.1226276584432616
12.396513180834482,-68.87884616585012,0.10995546956560814
10.034982117899888,-48.501526471057424,0.12536523879662054
21.734835090142212,-136.75870457540867,0.11684114242471572
-4.645749992915998,-80.2718313774839,0.2149381683158891
-6.822409150550158,-197.86121658832982,0.16514883492218552
8.555447181036351,-177.3194441093321,0.2431670577781982
-9.457099002309342,-144.2889093104553,0.16399377301220236
19.39549500447319,94.50336116887924,0.22927009722758213
-7.452254308121331,-249.87353259717423,0.16191847048635427
-3.5647573813235827,192.2698507813728,0.20541498767802263
6.320087979464963,-249.04623194109905,0.22480715035461984
-4.370877001880765,203.0850723330765,0.21742899135636348
22.55885159693384,22.2646761337163,0.28881251409783987
1.7038307067452538,-240.15408294783788,0.268963587270451
-0.02531194810298881,248.058859415222,0.14423592645865427
-29.847730563292384,420.693073857691,0.2371512198342663
-17.158609539129934,205.56393453981622,0.24805207553629272
29.044272016308916,-219.75255551429478,0.237739317901349
-3.292376204967514,-68.8326964517366,0.22959388565539185
-1.3666153601876816,203.4740312634742,0.24538836816256282
-12.259340971283642,-59.53287252585985,0.14543284098360215
-1.4379297433330243,-11.25513755785979,0.14544247062160348
21.790798121745905,221.4719032082539,0.1305207699971005
-21.29374560274377,-190.04142727014852,0.20857063168880405
-0.9423220386614959,182.8662994373523,0.1252111325831591
-32.09501804577221,-451.85136738849314,0.21230722215229048
0.5654051471171653,279.1370717085429,0.16210237182393952
6.6270040070589165,-160.18023568563171,0.14376593985272904
-8.853543312713661,-31.108281946877902,0.17795939427191515
-12.86435609586568,356.3207544929138,0.19239472152050277
24.24196941724162,187.62854331449952,0.21755861863577458
-13.335483348973742,187.74324720353886,0.23593568245648486
2.78651030026463,187.95655177576143,0.19060379746745743
34.87551127496044,40.936055224786486,0.2329760850700939
1.019419881766232,-51.987099612561906,0.282451810522928
1.0499654694363292,-149.98837028531167,0.20262682156938797
-25.442307938275285,-124.40717347530072,0.1587695410296404
-4.810007930603119,-61.70419491540462,0.219535223691866
-2.419466806346298,161.43454657888,0.34998412613164076
3.4277055885016683,-87.91042275913031,0.24216489899938004
11.95675580176502,315.144550913438,0.23186057538169558
-24.326876507803888,165.635896715911,0.1676589318421332
-2.7503937409721586,-323.57463415261947,0.17515348153029647
8.947631524817186,9.608835938890529,0.2832953751787904
38.65124750378749,-148.40385997976537,0.3057720477966934
-10.630993169795317,285.11732962155077,0.14544208963209784
15.970213721865028,282.4914954798413,0.1953254566931231
-9.901011371567796,130.3514977149304,0.2707389598801388
-3.0383202804334304,-58.960719655624935,0.26477457289359607
6.365574710694043,44.77346865876873,0.2654679333495694
24.070140464378596,284.4797342687113,0.14489468971308803
-42.57853862966668,55.73918209122532,0.23297365563446065
26.87172508287777,-43.34400664299895,0.2570663315628106
-17.80240088820895,-306.7266551467911,0.1662910223040216
-6.752596169658709,-245.31420327454495,0.20359887898479653
19.482302695392285,-59.570740573364056,0.10071661300639873
-8.426781053105529,237.886447122837,0.1934460953765327
11.205290063697234,-206.11439562968624,0.1436455210335798
2.1286125767034223,409.9713387136454,0.2839825631395564
3.497447690212376,-111.05836028612057,0.19148778967603577
-32.47486874300926,84.17631573142876,0.16358353443045623
2.5615602374484063,-92.80545299145948,0.23471475703941075
0.8988298936084622,4.810095980057632,0.2208118323387397
9.423055072865917,20.91996648788181,0.2286448652614202
-3.945797219765182,316.5463270655137,0.18356111840508668
25.091253404863455,274.99708864202563,0.2765432677651918
-1.1934508404676492,339.8089670347509,0.15770865580491275
1.1616567542319896,-71.45396838686852,0.15114742402445225
17.444602413265727,69.19175718809363,0.1788026663931049
59.22400077436875,17.900289967891545,0.15742503230352456
-9.309781745932266,-134.63349028716095,0.1996480605254104
-2.690131421982497,-122.61165719181886,0.24812608888209808
7.319226362340853,-220.66420989395414,0.31797785126166456
27.890475498366346,-125.32272496092753,0.21489199298458464
8.356304819694795,-194.131979257519,0.20957487849729517
3.8466733099192774,53.318668943080574,0.17208568005119798
-33.03540624847859,202.24735324438927,0.2533459525533418
9.537377180567216,110.81855569696913,0.25098197510573
56.00788415798299,332.54844205558413,0.21555975721533077
8.186874374792021,56.959250914609996,0.239740097779426
-9.51319039271884,36.369545007612544,0.25737292454751154
7.657107511643481,-83.9595381825924,0.22338105998648786
5.190512330501803,183.80799681587598,0.2492508609061755
-22.601111940553913,114.69242721444255,0.2957417825641818
-3.27968519536923,16.448319747007332,0.22700538950745333
17.260552705319395,-22.35464394342241,0.1775110048073819
-1.897676819335767,348.8390990195322,0.17340637209635568
-22.467796498079927,-68.00012640271326,0.18052340677155773
-21.239036596265706,-57.2084478006665,0.23556294137248135
26.42086010302365,-341.8025538557342,0.19441784638218215
12.144809307926936,-224.0708360305195,0.2107600395367781
4.201841312173974,96.69620606294588,0.22522822177516233
-0.2195098248740462,-63.07526397814303,0.1941717425726963
-26.962463152038744,139.93597388125477,0.22331080969136077
-6.097974729558211,-285.93555850073966,0.14085169655129465
14.447094510570487,-221.8638356775068,0.2966375466853017
12.964953882875935,-7.905057392990229,0.12665476561669342
7.8383972878353525,212.45005447119036,0.13223986307451338
-24.982818460869854,164.04838473549782,0.22022233034514965
-7.2500076680472905,-25.501968974145527,0.20685266356310048
-51.18637627485414,-214.19297105518837,0.24114453051712645
27.04517866691856,68.37771724379003,0.2083024567503578
-15.310873966771844,-217.9412564336922,0.22982388543454593
15.147904598481627,-438.0679351924875,0.1344033292947036
16.1680434483049,-318.4823937129067,0.2209435618779796
-51.231314403183255,95.94418990483439,0.22502631083779726
-53.343869873001985,107.97527324925957,0.21531594691490974
-34.77974176418857,72.77328764134518,0.1858503711781045
-4.369494590174517,31.841735085645663,0.17817779288761315
20.264805528050587,-46.890637523700015,0.214249454535738
19.293283612245745,74.9733958397594,0.2564158948585309
-18.79771541086428,-73.47775397784012,0.23629642319142696
28.369188636040008,-196.04355122936582,0.29042244348654933
12.125116819147868,358.9090707910511,0.178748925906973
5.022061705302727,-14.180690366713398,0.21530252448920806
5.115901986694386,193.93281527689243,0.21438151985884166
-1.9805023515810205,-254.09209155937842,0.2753277454164884
-9.556950086918635,-219.98117176120067,0.17730347487402975
-6.513736471379636,162.09329176976505,0.23418372034598922
-16.298594656430012,47.884112036306846,0.15340383121927026
23.287277834616027,-161.03446772595038,0.11131919563117343
19.611553153128842,-56.84835267885657,0.1360230963633646
-10.380912677637292,-188.7103628732458,0.13010912080853745
-0.41214329014383877,-63.560134767900024,0.22565350753228183
8.103294936859584,22.791269764364024,0.23297691451306066
17.269738658548015,57.39671901519186,0.17011101470367374
8.147608365831001,144.27641194566218,0.1300935411107857
-12.660678272339187,-125.16214000898229,0.20615371833185528
10.756428889934957,-182.24498367663736,0.23066948182971542
-57.09843734284117,-268.72576029769067,0.1283805235431597
2.8296442480412276,-168.59461221934154,0.19504723739440827
-19.978613001310766,64.61469213825531,0.1773401351980856
-5.773960141115401,96.91058582938243,0.10781966666972878
-2.851668851691338,-37.6419603983627,0.17076514748026161
-17.043966989913134,-12.928692404522032,0.19507479313024187
-9.924215243698452,151.5639300468936,0.24676668178658367
-18.464327577695233,-24.71201965756407,0.23648527669587574
17.244441808140888,-132.05285911473783,0.20943626404659255
37.37008355685649,192.37132063806104,0.14546021425983421
-0.06905857754144205,-464.33881693589416,0.21723140245809464
-20.91545977367982,63.509879122601255,0.17199529189839557
-12.339247396413864,190.96727640763643,0.26370171191802766
-20.932039377851723,288.6491551012716,0.2388855034923918
20.624794475064814,273.126644246347,0.21228041474737905
-43.59210110231231,-10.731650329098933,0.19731753832797425
-10.033062394389237,54.83139292656871,0.20804041967523199
-20.803202804935484,-372.5856669509433,0.16022713082685097
17.214907123884224,-208.80131643736766,0.16951680225083243
2.841698701028672,198.28102183388472,0.15043437783599803
11.011982567119706,-498.93008169726744,0.19040237357635464
-4.875921792864959,-34.78319425408638,0.22641018553310135
17.042766728893614,150.5329131846832,0.15200377557972788
12.582419033270307,-422.9979175649853,0.11307410107780401
19.19955234049845,-330.4590061142136,0.09873745306424678
-5.2690578482894255,108.81435591054152,0.1622917261751503
-16.175533955250863,-75.41243482893381,0.18612634513616508
7.934963280971051,-78.34682277482523,0.17858281338736737
-32.522314071606246,270.26582358747555,0.23376244932023751
6.3978278085490805,-121.00043682171359,0.18105912102795169
6.475595753321681,-219.01449891154076,0.20863488815063802
-1.5620942201313304,-401.3576910149905,0.18078981453722498
-21.883327139701173,175.19003048782423,0.29473859867873037
-3.91754999200989,43.26103638173524,0.1369395304587431
5.313891289842334,-182.18321906757853,0.18900256612991365
1.0113544313947107,-336.5732999483325,0.1832598795562126
-22.38997096469174,0.5604612755343167,0.2116533244313472
-50.26861904153273,-148.90222166669636,0.17430279182627773
-9.395682526560762,-19.128319465470767,0.209445218583523
-27.698198467619886,-278.6149323907869,0.06550150636134786
13.266030680982261,-118.15659056194023,0.1638739935036942
22.799209527475583,-67.38138162345818,0.10969199942283864
8.373756032632206,-0.9349064481486288,0.24107259509487192
11.895941002090026,200.31935068157955,0.20204903693534468
-40.300741704568104,-22.823647283480426,0.12380152144577164
-22.199135746162995,157.76331867307385,0.24093945911895936
-3.353274782194708,172.01449936666756,0.16877583928965786
-39.71586561066351,20.74900640423549,0.17279453360630231
-0.7105297797303965,-126.33436522815332,0.16156220770801552
23.357039603031854,-123.19221063263103,0.1940511014613751
41.24161798845958,-126.30426101449135,0.25101346249504614
-56.118028130363214,276.35881342128795,0.2799569962376329
-19.128404892899542,74.12596727216409,0.2509027821966329
4.353085373372313,-94.3318183696002,0.25004659705604804
24.08906219578846,-104.35667957249603,0.19204896399113638
9.520260111921644,42.26982020918231,0.15884915907637992
10.186921128281094,-22.638319455515585,0.21561565630108903
-2.6741933373551907,-47.7948223444199,0.17022254228034775
7.0077444903842405,-216.8532852120557,0.11451174924577728
27.03217761816908,-99.19128490704811,0.20357974741058785
1.0943904391158732,46.47939215249071,0.1665530152756669
27.303854993901883,-182.30318592715997,0.18774635497419023
24.248573618648102,-118.30592784688537,0.23696573832268325
31.54296966961079,24.37091143905426,0.19656649549428376
-22.51888487244544,-28.78481051558119,0.2067439592737255
32.57357576528868,-204.4615437208683,0.15038657238506295
-19.51619560473474,-204.6968724368712,0.20489263779215364
36.856433573611966,207.07741406936856,0.23298091659203013
-3.7411474773729347,-156.47923811741578,0.208186546925215
-67.62757209757893,-29.287216303121088,0.120626776145037
12.112803722429808,134.6696335970242,0.18133419799736866
-12.643775095419672,266.1196890059256,0.22192518113428622
-0.6671548236286162,-105.05155464410842,0.15598439076593756
36.32399859930533,-107.5334430857181,0.21239656735642848
2.3612741845587304,0.3272180751371888,0.22496237005085165
-0.30824051671496033,-29.825262396820833,0.14197493680178036
-27.235442213066563,11.595596817776048,0.15773772354264115
-6.3803829057829535,220.2840119631538,0.2574950417300772
-19.274467822576558,265.71680353325047,0.17311923149465153
14.289543953865634,337.35821122173314,0.234085951513697
-22.490487170072072,391.40443498525235,0.2303495393190683
-18.73458584111845,207.03387537179933,0.2195314530435687
-4.874505268220053,71.90530669413702,0.23716000458198513
-0.4963210758536162,-277.1997313346541,0.15207682331622002
-14.274088412290629,-243.1115362243078,0.28983804943633
-13.494312790348449,87.46983933159913,0.28255791179208495
6.507802094704234,180.08832811308187,0.18435543288054465
3.292971988292736,64.39341477823375,0.19501011787536857
-24.25837629786232,0.8082581376990533,0.13279333283714112
1.068049879768795,356.5061770252819,0.17628173604796082
5.430753377096311,211.90318700029408,0.23113584450502703
14.402589644830378,412.1144454196211,0.08765460515339091
-26.221693233930058,59.220416822709886,0.2438785443080989
-12.827332982869052,-98.20208257975762,0.30239232814447253
-28.478111928771227,413.79782855967176,0.11405328612426154
-12.562277796363809,-127.82180619761118,0.17097974581658162
7.745821299828402,215.362522683512,0.14189456009107856
11.456076778487992,499.4838733698007,0.215829084735163
-1.2437458943156336,-201.71421424535407,0.2440123629515517
32.488579953734266,-328.9308441238777,0.19858995262146306
-16.000457099676712,277.9989359762891,0.2485234400836417
-38.636540172088885,223.5000600797374,0.232711736196031
-12.077367958382577,-109.42016881685119,0.1832241717250186
16.077865383134814,9.471066168810882,0.22012017328359645
-7.454320421716204,53.81183181452721,0.2689387529514029
5.016225161781649,301.6419151283442,0.15619371442716257
12.138440769789105,-7.329932247325564,0.20331003669799316
20.70382208166648,-287.48981403835916,0.11424674868842377
5.813522655152834,56.89434077068923,0.09095648959098866
-35.275669825056255,-108.69961036686249,0.22596071615443697
-5.157538579789395,289.0193206043382,0.228612461865687
3.131935140911289,-68.05385272985485,0.12151691119258529
-1.5988302451558636,-94.296054098648,0.12376011579925733
-9.441640258422185,-116.7580597174455,0.29383161907090355
56.07031134853831,130.62800556843484,0.10244900320236738
36.5487196792726,135.9395016269504,0.27301465956636106
18.718351565230883,-244.3505069695637,0.2360770133550993
3.283599726272687,-193.28051543862694,0.19657609834816558
27.62865322763725,178.02947518268428,0.1781830641471626
6.0197558168358185,380.74875458903784,0.3216484572504652
-8.421749856784489,-172.00935875190487,0.19112508782811125
-8.89866763297311,-85.53898950008977,0.1477043502606067
-0.8189342342007816,-90.60375371223422,0.21735016381431999
-2.0269958986363568,116.28326732688916,0.19630990609270915
-11.260136304310631,136.74446287151488,0.13764124131579414
22.417423895784523,-169.43948103723565,0.1739425867178365
20.794243997663166,-238.79107938705485,0.21732766747280874
-11.984013813811448,332.0833993064372,0.20345096113746688
8.683600160079639,47.30643895576579,0.13729136513604395
-28.155552482380955,-94.34502145359153,0.22009346055029472
-10.180261618519333,325.0837751020882,0.16687858721378784
30.82102488728014,-266.5785073462588,0.07775844372922243
1.5851918736500332,-190.24176932870446,0.2207753611575013
30.375238140230678,63.000752108718316,0.15790460762133715
8.501969158473857,284.56574072276123,0.23008988633699853
8.687031285436259,50.47430806781635,0.22551010607044084
1.7728991328708354,9.466589127157945,0.1265083983355687
-18.722486588696924,-1.2669236637308618,0.27399077228778107
26.71930734222578,-331.71588947450834,0.21033306040047434
-21.10253606056613,37.80850440769204,0.15266442327354016
-19.550229072856638,42.73366920224102,0.16841524932054164
-7.823980453901797,-75.71483547312924,0.21026068176811794
-5.437206667774168,196.03034397503316,0.17445848468762915
-2.4480869753110914,-22.858087495341753,0.2303302670425977
-6.241513465947156,-411.8773741550119,0.2293842350463183
-33.99897656972725,-0.5786050387972231,0.29039305382715697
-31.03419112458901,-137.3397918839608,0.09837510644448695
0.5357744580575976,-254.29736555173713,0.18731359273573936
16.361654272293432,-234.78509664006884,0.19572945288994267
19.955182956507457,91.91200229083807,0.19554230519231036
6.950848365494272,52.77363324725178,0.2869921311127945
12.91534616790381,309.07666523458965,0.2581475277937931
8.639045788442221,-153.22264688380503,0.2876126110552759
-25.80031747185135,187.85161379401305,0.1387638139965361
-4.567118354455732,-256.1014068705592,0.15203715410642593
-25.35917013896566,233.84065212969358,0.20977953453813386
34.72215595042278,-223.24505081217526,0.15058782173841434
34.387734277276735,128.63472167996395,0.24737483799773868
27.885077875972883,43.87349899533493,0.12292514058722293
-0.31496332091638046,22.81819065057405,0.15198662911211777
23.518114601715986,-304.60988467739736,0.2549630646717017
-32.725971607703,233.67500225988164,0.20307770007450218
1.391215165830634,216.35212761038264,0.19566250362727655
9.388211056288203,148.6561039416425,0.19095831023258744
15.85815566821456,-155.81700945981132,0.13954991378571918
-13.076938342451074,205.6769343337543,0.2045947241135933
16.943269184416174,-156.69468380819097,0.23706261246316934
44.792577016605065,167.6534753278132,0.20888182961040452
5.935015673451246,-11.665986303100906,0.20448341885730967
0.03916917781114194,-334.92514970875294,0.2652500158413991
26.582675557335243,-43.61265951526393,0.17853812891813509
-45.740921852018275,330.0557839012611,0.22230645665039508
-9.254228451757362,-301.0303542649892,0.26266072330219226
-27.397211524528768,-36.58772573056637,0.13774788021725937
7.852711013756957,-3.9072979593909105,0.16785774281788415
-19.938147553794444,-31.604177067910527,0.1887573756055562
11.088244140702217,-35.10423704000421,0.2101431219963832
-23.22744635496935,-133.72580203514485,0.17394778757420046
-27.955716908317115,175.32320658987186,0.22194761181235412
30.7789391331273,-408.18117441327206,0.2171837488250879
-3.7732691513907173,-117.10281532844087,0.25320989914158043
-8.932399809938886,212.73657305806114,0.225070113682644
37.71574765002333,-149.85932373475393,0.30042150869908557
-21.62943123613397,-176.93142870316655,0.17333352882406675
-15.088588485566028,-350.88482815250575,0.20224974106747787
3.0894620222378064,295.45702108779176,0.18200994526421255
-13.635292567880139,6.0677479938153525,0.1989382670639524
-26.226791784733926,-86.70857890424463,0.18922829550217782
-0.32755207790366603,210.52785301780176,0.19294617553854287
-0.7391057476816667,-25.97669617780812,0.14121022530783583
-6.904370404432746,-125.576922240023,0.1503672191882088
-39.053014150266755,18.456666758141406,0.11021569871829877
-4.859571350513314,-148.10996421322582,0.2208480750474114
-20.70978762703963,105.8787640477752,0.25008515185035046
3.9564451978431325,27.365275720336886,0.17042209967446992
-13.859382940261067,292.14385715701303,0.28456397405329126
-9.83497304899498,-316.54157808690513,0.20998486213167164
5.52984262156275,-193.4015494662574,0.2350203879077315
2.089240740695431,130.71580364279114,0.23095140447670254
8.268099041827613,132.78335975288985,0.2077830301335801
-51.679179274915796,377.1007164809336,0.1607249039518785
-6.011312475588422,-16.636545703779728,0.16738436612342014
23.748965138203445,-30.175063336694734,0.23210632328806713
23.157904909878248,-27.094388336179016,0.19337526720126788
7.863647883094254,42.802074480021446,0.2945930989804637
1.5843508026877178,71.64331502804532,0.2200589528089143
-3.9256076333219636,128.0794482252558,0.17121164898280378
-20.01513395307514,297.6289293296383,0.18911809245870612
-16.064434746763652,12.612236831801901,0.2632900816636496
23.603577586368477,407.8466616495712,0.1603991326961403
-8.407073907174187,-35.819377708619115,0.15873622922927386
18.923361916282737,168.20545587479938,0.21522075363676485
30.583262910365555,-343.2049072609711,0.2806117807050536
33.48887659172056,-76.35198115926902,0.1993718517154732
-11.067571157512848,161.11516387813762,0.05548568940698903
-6.759940565333956,-264.51448682340856,0.2047065657307129
-9.562887277046109,343.9233246978132,0.1787911797330668
-4.99280830135966,-192.64108882381984,0.21687526624530018
-8.385286295533339,-199.8821044947413,0.17375277708950643
17.22221973000454,206.92651897025468,0.15748467486118747
-19.317554113333138,114.17388496310954,0.20970662117081634
37.638323005008786,265.4096062705928,0.2469039682585868
-5.901692743289695,-107.67015359465128,0.16995170082282685
-19.617831777501046,380.8096640510674,0.18849279255538617
20.713493503898132,82.73643275559249,0.20672808892463793
22.04115542392948,86.32931082952679,0.16813429927540263
5.5897008332562805,-315.91747259708956,0.15272614521771485
-6.415099954612645,-142.75468966382795,0.18058203524481872
-19.196375894370558,1.4617482993776219,0.15786042143290754
-3.488198074480837,-236.86694435190444,0.13054504134602443
-17.444794462046815,20.588578398087257,0.1939430137334724
5.26393162315629,74.98262053428816,0.22218630287975488
-46.64182982864599,9.791716032132609,0.1438191929135487
-0.932903955538288,8.530776497900487,0.2981999339346458
-6.705041594738203,-41.8882069632543,0.18098681382148268
19.124255570003726,-109.72576006710051,0.18080187889485191
-31.848045040852945,181.8113779811285,0.2049065084248298
4.664946186982254,77.35651362778985,0.14505399984652256
-30.927417834713232,-148.0830613629105,0.1637695939093439
-19.419457105770327,-184.32927261542278,0.1542696928016698
-6.113089319160787,147.9668261641585,0.1774858750124399
3.7122893003032726,-24.61012900307244,0.25820575747399477
0.5947445499902713,-2.348116509737851,0.19375739721489907
-42.352402818971115,84.26702322777857,0.22946040528737968
-24.062648920051974,15.896371627231112,0.20819875037990845
13.840657411327314,-132.18096383663467,0.1658969363020498
1.9466936068760143,37.46057251597537,0.23421576105319494
19.285850314825915,-104.3451107606121,0.11981722122384869
4.571564782222497,-317.64694302862006,0.17612093879087046
14.356758673792028,122.35854942229736,0.2056522765657998
-13.458513915340365,-289.01875861365056,0.18342973010325175
-12.32073287519958,-265.38347965666793,0.23798141170410567
0.8341805392175673,-225.98813693579612,0.1616540584287317
28.930441276445002,26.300451180714727,0.23959243016837375
-8.98408571016988,-226.11176218783746,0.2807315565110615
-17.71272718932802,150.63517932802668,0.17174254751738952
30.271722375952947,-102.3099712023692,0.22790797302683025
21.574244765369652,120.86030691758288,0.2872932338185124
14.659208496853909,21.876934255399313,0.19089400007700988
24.062595960347014,346.03860066688554,0.1644343130896735
-22.36088267645489,-367.10243805256965,0.19077793863719236
-6.717739856276789,-276.8902083719676,0.21094123370967924
26.954117814842053,-49.7612519038327,0.13828365087743644
8.495958015743863,110.10817267510893,0.18958751038650606
-11.566627746299682,-94.69939160031662,0.18673486766356157
-4.614215936654551,291.40628352773075,0.20753887584827416
28.209892360370148,-312.2895814436582,0.18264694458489908
12.55146789170984,251.87647005852,0.1380060266281679
-11.031089600433742,-66.8580373580666,0.23107669312469087
9.682736450497725,110.63785479453767,0.14929652889769257
-35.17002242026787,124.09433961277661,0.22313241620357335
-30.682168107678077,-4.218721670615185,0.17770418614483993
-11.90105560485483,-89.52392909690192,0.23394083494329915
-18.41847636502601,-0.14773518881025977,0.2068466824264931
19.45141084770131,-66.79982404278837,0.2254230430085158
38.628271993889335,184.83740442696853,0.17137844565636862
-20.229319694316963,-345.5350433993494,0.07578207108385404
-3.640519498800152,557.555475074877,0.18137740073160735
60.51533736394232,-261.7941238711402,0.1554555934638117
29.66783146779661,303.1052545037344,0.1222029216185539
-29.108675507974358,267.7871058697349,0.15527859688366663
-1.4360256918492784,52.338053037773925,0.23937421596176262
-29.496877786552297,-95.33652067059455,0.19944536853727643
-11.146465748449113,-76.81304426389137,0.2422871151341335
-0.15464942682469754,109.50381209080837,0.13339640780211015
-27.00966895456198,156.38657079442348,0.22573244959355665
4.949642974884279,-216.71364341742026,0.21277454887454356
-6.7427228590166415,-44.43060550662496,0.23331147732951155
20.402541841129967,13.174322310005044,0.24461522118015286
7.943041030776492,119.07569792031735,0.13386706431205772
31.53722908878839,-93.3897831462598,0.1586246536737072
1.0311253810512102,-167.1853013820693,0.24249640668025574
-3.757210278517804,-213.6822627538674,0.24102587159919708
-6.667529582317526,39.762020726886746,0.16252515666107167
-3.374841105591275,-39.047733487246774,0.2165943917928352
-1.068351834479144,65.8417241155179,0.2301183870954486
-27.526281292926708,-116.71834793061637,0.1878558470293564
30.45824854412983,-232.49240367782784,0.1585121667977313
-7.774627679260493,-140.67134755706772,0.19443632698866692
-10.858819615787487,-36.747139223600975,0.2172625014755603
15.663178525268528,56.41757624979059,0.2717156259559113
12.00267590114461,117.64363622332097,0.19381673848112366
3.8234844871110645,-160.82071246661724,0.16974859081267113
-39.20044103165341,-377.1795698370614,0.13606576685237345
21.5668148084724,192.61265399547915,0.33467372372300125
-17.469730173428893,-82.99968298555184,0.16363214392123368
-5.763049454753047,189.44178258991496,0.12469492402506735
-4.594873809536532,244.90467129587182,0.1781863773191158
25.995002510629895,-93.51544807888334,0.12544089572172135
-28.00317583064622,-92.90757401317973,0.22660338898995566
15.646872235887326,-185.30300472663956,0.18686849724912719
15.144622419502893,81.87808010123074,0.24066202431236544
18.42716247794104,166.59592780041743,0.1948329772900321
2.432807336054725,-84.55285038155641,0.2325915650695562
-2.689915852827916,-68.76141293351415,0.26443713747995984
-4.598146291841719,270.1791668159368,0.1841938269956695
3.979708290331327,86.36401006937062,0.2609244549957252
26.447052724990726,-30.72267518847424,0.3032608114599093
-2.303748234068067,217.2344695121324,0.14931532520085172
-26.532226346683252,160.31166011877295,0.1828152185686727
-14.024654879578154,294.9299710559975,0.27762834431104044
30.807572511128587,398.498225064782,0.15826744497477513
-3.112781830287848,2.2138170161294783,0.16515047479913345
-21.12562254007525,-299.538730743642,0.18038405812936859
1.3877844831573438,-261.47885029914954,0.17125833049709255
18.881196343258594,188.25650524820887,0.1923329900819683
-6.4615909633775095,270.9211615080136,0.13876461368297377
-6.839453900100619,-104.48509384918434,0.19843121213692008
-28.211951362769753,-60.19730054232265,0.18378697508954756
-9.995272395513448,96.7574738431495,0.3256846071216908
31.88136601651938,-280.90453153083746,0.2128289108192869
4.14188835818143,-134.73470354111717,0.19350828409589874
3.2317660016031198,46.37423875264288,0.26053559898942846
-21.43036242165487,78.82556808514519,0.22712034277674237
-29.836270290441,187.8143512609431,0.17391391736178705
4.7337158733287525,-316.4586887098141,0.26012105191484225
-17.91377533012524,-53.84756008667674,0.24735286243440235
8.845594567327112,200.01952917983635,0.1654274271231369
-19.460734554970298,105.95304376229544,0.2332332318224619
-4.80286978516495,-73.67982743814929,0.21949358851644038
-20.25080824201168,2.3159746312361884,0.2190214897353914
-6.682798732193031,305.81543994257316,0.18929083103309113
33.528206712818516,-292.6570197661328,0.11239680169010813
4.659759056667974,-320.6765414976913,0.18813366636068568
12.715050456427539,-201.73388850666078,0.27035649433028275
19.821259042502014,-153.94069581445132,0.21602008711521598
16.919797320919365,1.0558687171189585,0.20766142515199895
-43.380966893800874,236.4879628264941,0.21335590199104826
34.23179572822283,95.57733693414703,0.209197623206206
-16.569826536921447,-146.01971706489388,0.2169347797507142
27.853128464741115,-552.6322375056897,0.25134226989293035
18.322952966653382,-216.6105835850973,0.2093234124211603
13.04125727633253,157.0322218392658,0.17813080650180887
6.649924328581908,54.96694602449298,0.14207141819838723
-6.706644367045857,365.26846451961694,0.21179496082179633
-22.346887885388767,-195.36385573140493,0.2784259640792626
-10.39274146808447,-100.9234908238813,0.23455036744439928
-34.5301896875332,175.4297458593897,0.27484873344641203
-3.799097340498178,4.590544025652342,0.25140774326340687
38.56143168785255,213.58867387566525,0.23596194182725422
13.750186193533915,-380.8104696739695,0.18359796979982407
-13.112321244985619,-292.46820673829126,0.24055800380688472
-1.6690554902934907,-87.1186776383597,0.11594008970168612
10.943891931343384,-65.56944876525091,0.18894347241164525
-29.08789174732344,-238.00950383949186,0.2351779955537619
-12.604370408951556,241.84908885745443,0.14881591937202227
27.0987730394072,106.86270766229973,0.15367735087530707
16.87401377607613,6.206652350415117,0.240079554801868
4.359902065061804,164.06293076456848,0.28233592060010543
-13.907406751044286,110.15146523985236,0.25266255101579577
20.64559938962679,-38.847999687125,0.16190886204477256
-8.665125217929056,131.22129091861058,0.19809144052130392
6.333043389605107,-171.5778185347479,0.15643338592111133
-42.31110044474385,-233.60654550554142,0.17143937639399603
28.497664368319025,127.75318482122123,0.24707502776564735
-21.462207765839302,384.19539462985136,0.12989882296374367
-37.68336518515675,20.784086499311698,0.2914512080288815
16.49255706505632,-80.70381631986734,0.26057648451190507
-10.003431085900456,45.93755037916479,0.17262749152019977
-12.536533223446746,140.0563914968378,0.24809234749869633
-31.48938781522655,344.538060966028,0.21940171081711768
6.0235793200481265,-256.2448113744567,0.1637171973609832
0.6717239864782572,348.2572647391167,0.13361493689287213
-18.003713590003287,-64.58168862894516,0.21795693366918104
-5.612799245529452,112.62275059207035,0.22694504458055575
2.6911559559324694,175.15824298880085,0.16901357440000958
-19.43611311003456,-340.72463722338296,0.26746778353610867
-2.8295807752546827,-68.23338087230383,0.2247984002937264
-17.24716145013665,-25.96434401030073,0.14311707314631672
-13.677197279438335,131.3261876796618,0.12038543434483212
-4.088528480230213,323.14128669368034,0.17326411267482386
-0.7785669418256492,-143.35320572370253,0.16831710717643464
-14.482011824193714,113.74697104704998,0.2807481802465252
-1.8838836789684852,230.7542240341455,0.20022010182441072
19.128043132772333,110.5105121604583,0.18724290012552414
14.585875910674114,-155.3211175434119,0.16117616965387851
4.787565611872124,-335.876266174182,0.24963992709402585
7.652302272766752,-313.72593549179675,0.21215165892366294
19.834967382032282,-184.2502265151257,0.16612526276843897
13.70186204098677,226.754406622723,0.227343594581453
28.472899576294335,-55.19773818648698,0.10623270480736208
-15.832246124431848,107.6957175802945,0.19670262132867128
-7.235307512863186,-459.4821609354799,0.24520032006491868
-33.540579593558164,13.847855238948442,0.15679693485245072
25.991144777134313,30.628726631789277,0.21272032789747708
-2.0901638067633983,76.54411080515389,0.20266337982847557
2.659491826449492,52.1142478206863,0.2178221234478429
3.559899045024975,205.6530713387442,0.1860305926676182
-5.306779979308773,-413.4015494765388,0.173262870208006
1.233705929035502,317.77994303426505,0.26152358147698146
-31.481507222989215,14.790565850527294,0.1798320040526833
