64.41492758287642,7.230902830095628,0.20278146702118277
-106.06213039152858,-19.271379321850993,0.2384774676695825
319.58170095316774,5.94410176272944,0.18075460891827488
20.62425035537609,-29.683251098157065,0.1912858770907703
-173.4164181439953,2.6349820115330362,0.16701528255825243
-263.1342867971192,-45.05472312097837,0.17022796742439364
27.322290750334805,10.454798885978374,0.11608477748955141
319.64923231407056,-10.38424713749202,0.22718543922383272
89.47536057592197,-20.598703840697926,0.21240410995251027
-131.51763320481206,-0.10167889814519976,0.1766474034930522
-89.06810815806098,-13.025259787459735,0.2713973431710173
184.99298159412004,-10.717920897885389,0.25112568798818263
227.62913445311602,23.490167723596265,0.24485505355112488
336.05785451977005,39.11828278178595,0.22053009280852826
-280.43014112582614,-11.956597604693034,0.2979869391911892
26.969210490080176,10.406610427923443,0.20754111190566105
-232.99508720758655,-3.1847003340166853,0.16802554861612598
-125.7375129055436,-17.779856749990287,0.12844269540799813
66.49631056354049,-13.82920795728092,0.2709693738305903
-146.03433769023277,34.62926554630036,0.2413951882203862
-317.21461576676455,-36.94144161094633,0.19984359189074763
-209.23944224804853,-11.628827799979417,0.14687960229343397
-125.04791376500279,-7.245717181842149,0.2387458235458572
74.97802121245492,18.709487045086753,0.24148591891646573
-156.65814757045072,16.89698921582043,0.2198503549093399
154.66481438399686,-44.674171043976855,0.17277558557620581
-67.32296908929246,-25.141078530005764,0.23432059999435242
43.841745910631005,14.1196389942006,0.14674710362659305
-47.87608213323038,11.69042388631718,0.2474537759495362
-109.74826994789223,5.128187071996795,0.2035901882388031
-179.0553853862708,-22.934701245357797,0.2022967733409357
-287.27254464601776,29.01554281233196,0.1583411773614387
-238.03298404306398,12.495067586767842,0.28130515089029773
61.2236828799694,0.36714180147927944,0.22006484216583594
192.2690587685586,14.10466032445678,0.15968369665154386
255.1423975222443,7.3945574278073245,0.14856923149562823
-46.628011226313916,-23.396102225875506,0.213484023262841
130.58581345036353,-13.037919000870806,0.13387429528304132
-349.8122758686623,3.4298353803352253,0.15691583903459194
-51.61322529352561,-10.968155091770058,0.21611291562281956
88.63753234672114,18.794258617738762,0.2551027280628256
176.32227069555458,-37.534918972276145,0.23122188371080804
270.562204663992,-2.8496319676066166,0.20514786838655305
572.8754081810848,32.042999642111575,0.11531192604281698
53.9853769502188,22.016306758578427,0.25186276397698243
-115.68840380649507,-11.268749378796938,0.2196316673847598
-173.75322192713267,1.4385534295749902,0.1758120048772408
-225.91924802728875,-16.145302412941966,0.2544416043667024
56.03520103865136,-12.204558377327219,0.2506672744934019
316.3225276269267,8.873670677908239,0.21789919581781392
232.61392612474592,21.94769951967716,0.19576945466113765
-191.4299382708522,-19.289426187713403,0.17283896037053798
259.53485587709554,8.19884394907362,0.29744870603135637
-116.45188126133168,-4.5110864768009105,0.13258792089756077
-87.16312756069199,-0.22105441337727041,0.0732348540468975
-94.03095943004712,10.418110586173071,0.14141381619704216
-49.84780537744198,27.65582382529732,0.10735273006479543
53.3155978542944,44.154523800554585,0.3519827355169114
-454.0031117088082,33.34206217928271,0.21554239763347274
-78.61583316197148,1.0817457695179866,0.16577382578486002
360.36383883882377,21.353517945589175,0.20000047927171571
-157.73327403842188,10.720793289056644,0.17099424568578464
-30.966465111665762,24.94104207398607,0.1443729918660018
-207.39587897119495,-16.469632093425318,0.22406688164401342
-114.22118264287036,18.790062786930907,0.1694264519487457
-9.908854939038775,-22.792326062839802,0.15773276092256877
-185.26116146057302,24.648230052666015,0.22203600070299317
-116.4408780806632,-47.24225734887337,0.1011023542885536
4.764506424583663,-22.09701381702215,0.1648868441872817
-273.9603256061741,29.752792321196907,0.29688164659790295
74.58826499873705,-10.931838394040742,0.15580657839759826
-65.64998449580382,18.219467806290087,0.19200910393956486
62.104253047044786,-12.76570837467161,0.22822240397151952
-74.54398438407549,26.82615957705826,0.21909626763229917
401.76707032497603,13.239983534483109,0.1938967854862104
-244.28617219642,1.2588288376056056,0.0753214532515548
-126.67524171620403,2.6752470413014473,0.15950236293779702
-33.12331675921623,-3.0546769427763145,0.24165005473975185
-141.22267408258423,29.01458930502382,0.22531244987547394
245.45459568802636,-10.382757447781586,0.18829081710782508
254.0877136257101,-4.263394132493664,0.04608459339574261
-173.19855569685652,3.7683039555977462,0.1208422698384139
380.580821405501,14.212151671599575,0.24545911600560177
-77.0097187624543,13.323912458498171,0.11994534854573816
232.47602468273914,-0.40145875917839535,0.1471829105729996
110.24556046758012,12.685319133632182,0.24460332988102618
204.59959104502246,15.841421219282415,0.20044740651928
34.9362209697563,-0.7215382325602927,0.16554405552656687
240.80224770289337,5.088071841899754,0.19899567388340061
367.0460705209615,10.67695628613431,0.16068803324653053
-46.38223775217259,-32.877336968714886,0.23490824564980906
463.83760894431595,10.26393955059948,0.2131620568476036
-175.7446572440226,-26.28144176673446,0.19527895943385576
-350.38691686631023,-6.4205305650055315,0.19238883196038442
328.23359637980076,-24.22162989739254,0.17363066661734677
47.464203328408885,-5.8904769695222985,0.1530345255669882
321.9546526335421,-16.920931076081544,0.2177318210765647
258.5642474974514,-4.729417410933484,0.1810595880420496
414.2359507100974,-28.113687181943867,0.251666364716366
-236.10513398945852,4.158185303109708,0.2639725828809845
-197.60035800479508,18.94382369643537,0.23152628637785203
209.0628105007454,-2.5765828127343853,0.23846186411814235
302.81707858834193,27.97371919866159,0.17345995864608907
-21.044688173528286,2.3562465336488647,0.1907633391944107
-209.79383657807676,26.733678450645733,0.1701253090636289
131.06213255895284,11.958896398058974,0.18807423428753264
38.80368302146341,42.13283125578659,0.23501409254464084
44.00655844467442,7.179008560050324,0.2621705758959346
-244.25577999387778,-19.095133439115433,0.11891064231501193
53.13371859164566,2.4529288317731686,0.12234155200759544
149.11270946999628,30.42784072860895,0.24657158440812763
111.33823854470293,-14.774989366388418,0.1966977456306498
-96.11667761547632,15.698459357344984,0.18302106199969911
151.39364703695176,6.007952548110014,0.1320381082160751
-223.6570955005948,-7.331159584905067,0.14005850900418385
115.48553902679176,-38.28685002115904,0.14969241259934513
170.1699700952804,4.8013891687349375,0.22611203612137942
-0.22233837469274143,22.204124716355626,0.1558505133860485
-238.46409696318636,0.6608355766735928,0.21689224801678628
304.5573836687484,-4.489836461287132,0.2470707064420372
205.09891600455848,-17.16276161962731,0.18532809586499122
231.48769029337433,6.69507989004412,0.33748767545917246
-16.279435913207617,1.2206757757089504,0.26347139551784093
-96.05538607897122,-0.1055966509277831,0.2534156363998011
-174.25968879358132,-38.392553098601304,0.22263616635793493
-142.6452847584391,15.894176166971128,0.16964780404547572
-90.18259555640392,-1.9967598627872354,0.24452144705191037
-12.44451488616565,-5.209217082781637,0.22996258568586164
292.25772825929386,22.599212162068305,0.15296195009681002
78.22376438534414,-17.727552227143406,0.225996926982188
59.218798118571215,22.426484566854157,0.17088571336652839
-145.78996256963904,-19.96391816900274,0.21999990844630612
-73.5625784000457,14.338509061231623,0.179872826714646
-119.19808223128912,3.4396555527954225,0.1974451778624817
-369.836035737376,-6.291024365833459,0.3044268196262646
-80.71932261350642,28.95808238741051,0.16205337915052498
-308.65876281055085,-7.785869720875816,0.2266200500672098
179.19166922905632,-3.0792262674948594,0.12251474056863788
52.17768827870145,27.37134994479866,0.20245051662449395
-17.02187078037263,-8.820915200179341,0.2209733041718972
7.793098258527058,33.20006414209434,0.18364666924938766
-287.7505308535509,-6.0326080640055615,0.2248125345373012
89.49196946387427,30.364908723204277,0.2333187351186639
-157.53328910737207,-7.798432017362571,0.1814448411555686
-180.8249698668126,-3.2163236763930048,0.16117427127595607
114.06039021924406,-5.330054615866665,0.15517593037167618
-189.65833867677173,4.33307656551574,0.11193828037227027
201.59056272528213,1.4923255423483783,0.2141153718936093
99.16503508060222,10.482613275039625,0.17431746398435566
93.71489455352916,-29.33887621994222,0.27199165810708026
78.56166170535872,-3.355239362111486,0.20775730801690503
82.47538501816537,18.255153833403632,0.19216556158355663
104.19841958310727,14.130570464969296,0.12215778364437445
239.63663039860813,2.7637020400584418,0.236814996097682
-122.75518429738719,20.370286466808047,0.2618298207588545
107.6536154292514,35.71286109468837,0.12704871220562736
-243.79614934659358,2.279761428623783,0.18841473477873386
29.807253993177035,2.2716184285813763,0.18951141944202793
5.074655020294739,1.660022572464692,0.15592389142984572
17.197976749719786,-31.034578573115986,0.2099092212993788
333.2618122292113,4.838744344399126,0.18324467532907787
334.77896809904826,26.79566377320618,0.28596463418876805
-33.03895331066959,17.645435706897352,0.2567527768202174
-154.20390783193292,22.961672156308637,0.2150641537755126
37.32591668304455,10.566031092865273,0.18465241901169613
385.9214014503155,-11.987665886495629,0.25533939022942514
-154.6008749095797,-24.71507913345698,0.16294454980813836
134.06835690394794,-16.60121088778598,0.18113398353994675
266.0591998996995,6.406222853801741,0.1782181737838047
-203.81367515033665,1.1600601411728062,0.24712619674882255
-176.91884895191384,-8.619056981996017,0.10448737656971394
140.74004435014098,-11.890622613864208,0.21699091925596453
120.62765069233406,-13.511740945021483,0.10881246578884753
-508.25678509115573,7.36341960235841,0.24174046128267893
-268.85172023096175,-5.984020291810074,0.25152161726066846
67.64932610459599,-11.557475085837483,0.23170471980274954
-33.827034191678756,-20.347441738930602,0.1274350596427995
-134.42393697959974,-11.771997082064997,0.1546641608235426
104.18221297548607,2.2337139922774223,0.30516250588222593
89.74748137669198,-9.87473769646042,0.24547257774648595
167.12385824454958,-39.40251591503753,0.1381500632434178
-193.59584209629577,26.420527477970218,0.23808440929249747
-106.26127430475938,-23.527862102568037,0.3098426781437908
449.0755338026814,4.304023579967902,0.1396440345907203
42.14336621218245,-7.131078360378034,0.2981750133664185
-315.61463551466255,-27.572386377482538,0.1924462208818579
-74.7194053216268,24.821079824141783,0.20748178358824862
-616.1659167344943,-34.547265308359925,0.2256377805280532
196.5114638334661,-31.09479212107328,0.27241685671906835
-163.00265151822697,13.900294034746334,0.1366719188605286
225.98863080193445,-9.468796286623464,0.1854804991532646
31.145836415384842,-18.21430640689281,0.141462265949412
145.30977111862924,-17.09995561521106,0.3180876471282811
4.666317760895476,2.4763962090579708,0.21115042798042563
-334.45669952415574,3.5686966948351713,0.15176239820363946
-126.73727334631386,3.9285773069107965,0.2377868432545906
-151.04656257256616,-8.911271081402365,0.2411477396489801
14.016587730096305,29.73765942251909,0.31219442613527426
45.0496824775752,41.31712382071838,0.2008992869351012
45.92198139070294,-11.043581318109045,0.14605050112556564
-395.3281828952018,-17.126826034374126,0.18392562949668473
-180.97259788242042,18.430439179365155,0.24706907585629223
58.893745874284,-4.856503609716519,0.262891036565277
-60.31553750756186,-19.913379295445875,0.17501566311277805
205.0942061184712,13.724840605096507,0.26183973258574245
1.4491575845657207,-9.402081626941921,0.2851034344744331
-54.92590666209004,10.497595583172279,0.14231284449415682
154.5573924598326,-12.913211962633957,0.18117612123955423
60.22865706870388,-14.421182983976665,0.12953289112777988
322.7703898627227,3.3607436610722283,0.23215087962539796
200.870390204418,31.519389787744036,0.22813981805772474
66.01318602093504,-0.7268698255210408,0.20986655551327882
34.83912388530336,-22.29406109199274,0.20525234416788615
-204.79015652506885,1.1904190515711783,0.24280037434164875
104.04517399130448,4.5408983936700285,0.2519786572756959
-293.85541912139684,-2.6651044510009507,0.15104849090848346
-1.9276106641217108,-15.96953867163936,0.18188384904492683
330.0194407652946,25.3635873268895,0.22295218188622803
-84.8966894189936,-7.843701005869692,0.18635391806566498
149.20890294187706,-25.120198298308026,0.14875119009830817
-165.3794493900071,-1.749268167130199,0.3210332548083315
225.85127807944946,-33.546731863207164,0.2777813395787768
33.22082603504447,1.8764247615117033,0.1885881127338119
118.41383203298568,-14.676457802065947,0.21055922873979296
-512.6022398514642,18.19865347481118,0.19864226541000513
62.458479657966606,2.866015109602901,0.17653578673030595
-43.37153890879134,-6.3777899443518296,0.2753087828004344
-3.762490944758723,4.003340919556841,0.18317552422553215
-275.1016520620341,22.716010789912502,0.13853414422702093
-70.12229980796391,22.28634768560822,0.14522188607876496
-107.35564122701054,-16.052890758224287,0.20058027447991186
61.15417560732308,26.53441536331535,0.12979330442007764
-140.86185991162483,-4.864611189008136,0.18817909970855942
195.6861715542167,-5.36580143602321,0.24306660188980583
68.58635325904858,0.39861052199521463,0.25459849761273345
-18.785170797002937,-3.88041595528283,0.20585769446363156
-57.142020502140966,-30.021924360473022,0.20746286681935763
-182.0229711611839,-15.907850610590764,0.20091665004791648
-240.07058762722147,4.31928426230402,0.18802082309093832
-40.16397148916123,-5.450476134365896,0.20958900987447676
-209.83257750174835,5.556370749530679,0.17451443206344347
333.01287527362354,11.162060362768226,0.3039304234000151
-75.82379361190932,20.277593246268644,0.1864576408034907
-184.47439564161942,-2.5848302564272863,0.1399457525570384
-69.69928619251824,-11.892319372646467,0.2312545181495272
-23.82873046631296,-0.4490879191416115,0.20801232054017862
437.2648253773879,0.3300767068203811,0.21149409418158993
64.06357389659121,-23.792569702529484,0.25193047422715575
-84.78169106403024,37.48047556707902,0.2033473981991941
224.59108127836984,15.13363877811436,0.16570966121053116
-24.7208472670739,-5.644382077555772,0.1573281183487378
-171.8417871002137,-0.24885889997371402,0.1966749317633244
-336.23213977798383,17.196047393997706,0.19818188626897085
-85.51932630510282,-8.02326805848421,0.16877505713021024
-352.57997511931205,-15.298809290309595,0.09109666758311388
118.07060829152536,9.891248400831874,0.157987017931242
161.93514821076243,-28.81712952598797,0.13923689999101946
-112.42925360921585,-15.515577364288951,0.24221823756840094
423.76902918122454,39.472533298357824,0.21925748333818662
65.21461537235095,-10.596692492886175,0.24660303335152856
-389.33757004219905,17.67127050280656,0.17603318227559633
91.90601184542211,16.70695582942486,0.18352512942965812
283.2197718795236,22.72577449764626,0.12160894631584897
-114.45289703910164,-11.67747967549258,0.26353534711538473
10.014349280979213,19.549743863590916,0.22345555940290412
-130.60176003346257,-18.923694832197285,0.22698882241445378
131.31862876224807,2.318188669970265,0.23484441538788126
-205.2121753006909,31.267621074005167,0.20651024907159476
-8.041498598642876,25.295821087236234,0.1854921058503127
4.6057147555857245,16.06483383312253,0.22277962391738015
91.49176718767741,-0.87201575797225,0.14784277776274224
308.0038584185603,25.17507320439588,0.1472346621883897
-255.49322418843553,2.389908693826791,0.21063842263031057
85.07511234428235,6.297037761247923,0.1434653317186922
236.49583080132328,-20.981894233529673,0.1715389253607574
429.87618011605855,4.168375752074857,0.24200745105326268
-280.2318183111773,-1.7116759578787208,0.24857318710102896
-357.1256660387651,-17.82147439252778,0.24907407323264552
162.114039332391,8.427399600757395,0.22964230501561328
-206.00744822319714,11.344750336594029,0.1578023458476323
-331.40951129593816,16.581942531247456,0.1749541982051028
-280.02827212605155,-7.981230114235601,0.1732805055861824
282.73108168279936,29.91058713715994,0.12742370909370834
-278.5806996205985,-26.241471601174624,0.19173459632211498
-126.579573529851,-13.369313782075736,0.1389973745403174
120.26065325592816,-17.998946115812277,0.15398178054255168
137.24503789163347,-16.202483060833416,0.26168514376195934
-51.67726472614939,-16.46382883059499,0.17373649682544073
-24.909354111062207,-4.367612867720244,0.2601794495678146
-66.09602820253416,-11.54907744917603,0.1289775693937718
-119.68757461661126,-14.292344036761618,0.0950012591333594
-17.377201281067205,11.69251920210039,0.2375327650020286
-291.92615682730656,7.231542186811845,0.2735551887876825
-428.99490087625526,-15.566496577235025,0.2272366243842916
21.97708229306529,9.74099352149658,0.2197680264895917
18.99371962272969,-29.874460253680844,0.15509202361442012
-208.09236584876857,-16.202937964170474,0.16569591550386698
-24.087193567688196,3.448991662024308,0.1336272859537732
-5.88171364253974,1.9721850249578767,0.23883609052339608
-30.21877111729157,-17.58468356661278,0.20765136140433643
76.89217190129966,-21.9491042918216,0.18603260083612483
-103.86501921853844,5.7350013256914405,0.17211374332252646
30.614227322770265,28.89950237028398,0.2689367148840964
27.462587879940575,11.976241504655933,0.09430861223811529
-34.37248378792389,46.95899489932097,0.2739845643525489
187.61958213176314,-15.480726457856393,0.15237068880475058
128.75610593755673,30.88481046540524,0.17882599549565525
-98.34358552305564,16.684428915049544,0.21476024053038892
-136.5104994604057,-3.5567140175041096,0.2873227630525753
-3.03087369049796,2.877279686140009,0.17944324470520653
-43.84049323354339,-0.3129152564367913,0.26592829346704006
-8.502672580130556,-2.504788346444399,0.18925090428920482
-162.17847919547958,-6.5783292247151826,0.1866314236186548
91.41805087476847,-12.008459108652968,0.2745559311832069
-41.066341364698786,19.201304152075036,0.22287190528089837
-263.34792856996063,-1.3434202008654128,0.18212870978142046
161.44928859109223,-22.82880224076223,0.2583727719569877
118.82547566709,-11.834348153739425,0.2383617947714727
-38.08204941091503,20.055774116398442,0.26407297791928547
32.616310942999974,-24.780392246766997,0.1427686125893874
87.77060311255174,-24.297592699915363,0.21786299309118928
-262.46017042702044,31.69176046761091,0.1893958766097657
-198.02412148935628,-10.720154432318527,0.11558140333705114
-184.96451324868477,-15.142770368917216,0.16788873980755464
134.11278827667738,29.431581418518995,0.25310986317534356
63.652382264313815,-4.100797580947199,0.2241828167136409
-38.8696262059988,-28.826931354340406,0.2879283997104997
-221.616504426984,-7.052441247703705,0.19970827320544854
-231.2422392444545,3.9657526005490205,0.1800671311844243
190.8212524682934,8.354140145733144,0.22460419630357992
-236.9531723175223,3.030709994869336,0.2136080932245979
101.90256519268819,36.29290156609598,0.19326312002209342
149.53132293459618,-33.16588483324347,0.17215316952534526
-139.2701727553239,-7.19197482339885,0.21836924538376828
-72.5662846474398,6.953855854012973,0.2081103489186409
-105.15776739473064,4.79319205155477,0.16897351280907458
50.80222366073374,6.944822222231633,0.23666752875540414
219.7236672319522,1.6080641574965593,0.0834982699380123
20.40365977246416,35.56598374742145,0.29051612180302455
-78.76952929120837,-17.660172106119944,0.20093805403107093
-35.07730836885411,43.223888810868175,0.12752211912375433
32.49022625049413,-9.271533793191299,0.21668370201949833
74.92790623329213,13.149663168965942,0.20670301499092603
-355.0119152588959,31.028354834448596,0.2117578581820694
130.91056398727687,-21.08920681181306,0.28374165761640147
-23.08322603196671,6.827524527123216,0.2068878125521366
105.51872039613157,18.38034329437104,0.2508259811079799
-150.91572572229373,-1.8306404381172705,0.10398812359848122
-218.96776974146346,13.859426376682606,0.1834068723807164
-305.09595446360885,6.136637130826355,0.16874598801347204
-447.13348424335277,-26.594292837680037,0.23190223378725192
143.2571836452193,8.231228448173537,0.23120352644397224
-105.20667441025692,-31.578908982985226,0.18560071338897355
226.5392326915435,-6.468238883708084,0.19637268384735188
144.65587596157425,-1.1472200629117126,0.14040521535933778
-180.95430761074851,7.678337496945842,0.1648813888057007
67.5513564760476,2.9309838076692376,0.1807867612524072
-103.31423062746114,-8.838367130090676,0.1424644552743168
-47.74852608973889,1.1115367615085108,0.13757779953118948
16.39739967367541,-40.65061022262278,0.1419269305397312
-84.71917488447345,13.253735630978438,0.15331816837810924
-217.35894898428367,21.187245122526516,0.20821156666249369
161.20339250973035,-34.274400628018796,0.2034258531953118
-98.27197511520056,29.76845456679858,0.2559007209048133
304.64627482001765,-2.442099252657808,0.2125668211288256
263.61527046929837,7.534483475534986,0.1989813348933913
109.42693636852698,-25.873497598448473,0.25788456859532893
271.90582302689944,-2.8564617904789587,0.2556147910532428
-158.23212442305643,-14.483197119319387,0.22223254434675266
200.99798064807604,19.087191971419482,0.17693946456944307
31.481739542923115,23.297389809407022,0.16664857404284866
-224.85142906960314,-22.64068174848465,0.17052622777018245
-165.33860220448557,-39.77538008986349,0.18327257764935356
254.54248811486536,34.12659036222112,0.1190516394115077
-327.8693480416153,9.257222901595552,0.18335594876902953
173.94351696857456,-13.426565421360934,0.143554136512126
-179.11957321382243,-24.833782603832265,0.19339138765078184
-197.22661546062275,17.383813742528368,0.27005029554983584
-164.97930557931454,-15.152182319964734,0.23941935481604348
227.94878393027625,-6.952514852745066,0.3006597585547693
63.9326067660869,-2.545819669232439,0.15375071523516565
263.8040150893145,7.4010023703721135,0.24929611466724322
-43.428704134053575,15.888626100797891,0.18052031673969007
34.659646934946494,11.688212135310197,0.31588369595000954
-295.1053450138347,-61.41023788686355,0.15657869487833803
-172.1826409404357,4.941022226670722,0.20730011778802607
-179.88488401955954,5.241962032098532,0.11815808834329929
106.8627513995046,-12.457458534902457,0.22772631077786587
-49.45906815891614,6.683350771746351,0.15945587267362454
234.74407133494023,3.7311584723325506,0.23685324793641138
335.1735542845488,-29.15402456316325,0.18677199771585545
166.16084192138118,20.32373794321325,0.19073074398037493
68.04318728798111,-26.30611373577779,0.13938324610949207
6.150748074235833,21.68638456042165,0.23913090521328648
535.7820546776027,8.335187406311896,0.2230381281299758
55.54100298893285,22.539046683394957,0.15330417579189237
-190.69610443491928,-19.266491389825273,0.15036490056021562
-224.2113222759523,-19.5577987298513,0.0678066000861379
17.38315467158776,-4.881504924815459,0.24455055424546418
42.116352684039306,-10.939017655576968,0.1268164912979427
-135.15415591493323,10.047349762502815,0.27075983769656115
253.1381088894876,-18.129430263955097,0.1832057563875124
-335.2106697407387,-9.778364300652191,0.22146771301211177
-126.99980255168425,-6.721267517581614,0.20784442045410928
-13.36325239996694,-5.772939250397887,0.07503526608254903
57.92360491459632,-4.966845364233046,0.2154668671414578
-266.4641419890757,12.410760737720532,0.2421437920784072
22.58751377948641,-19.657932973539765,0.2680788744245286
24.301749249691756,-16.951484575854852,0.36233065751263677
12.01263711821383,-36.688711715171294,0.13494693570502575
361.42507700975375,15.289038493456433,0.2594543707456775
-245.17467751762888,-17.697430997061044,0.17182652634817866
-118.11475501573017,-15.373482995714793,0.268458118248772
-28.91078177252228,-33.75125480043464,0.1865849886166779
246.36699478367245,-26.086118516568263,0.2225874412950868
95.41204807603081,32.27181010530521,0.1088849297290999
15.179146187739597,-8.90914150963621,0.11632775865923559
-30.505963235462502,-29.131560822567128,0.13483926780274968
-60.12733514419683,9.355503630143174,0.18668623753349076
384.13716848416146,-32.47226082586916,0.22320014338522942
-179.06304659060083,3.5365800089599535,0.22213303098608222
349.6392978091952,-21.79146579667936,0.11799666727888825
103.42943591351215,17.330046889929864,0.2689788739448731
197.01294452721632,-8.370393175703354,0.1107669958590128
115.69524935806308,-2.0968359512358568,0.13198368905974023
62.67417796388569,1.0405727771684499,0.20204950722909712
71.64299751501889,-26.292945026842204,0.27968067006326885
-77.9714760078605,7.393032412234661,0.11970267052346759
-48.22449269597796,1.4605828308148685,0.2022223461079001
47.528151945993685,-9.637608327170872,0.2147680945203738
23.8496964296832,-39.02046069569871,0.20779197159782306
442.3504855218698,-51.5625965754769,0.21910022616715152
398.29601948996054,-11.109987471827157,0.19412714539173878
-252.78388090351567,17.527543196280032,0.25057047712157837
-186.41563966868094,5.874466013811581,0.21092376064211768
-383.5754430360976,41.823356958499566,0.22033109035674636
45.42637128672889,-11.092409483699422,0.16469212632155458
-108.91219233305685,8.452926545998759,0.22781712548704428
-5.9034817924294485,-2.405283261599765,0.16294380082996718
8.586600247313342,-7.464815819194101,0.2509020775941836
129.36160927249196,-29.70638114590161,0.22426840413885732
41.636622080693364,1.9675479947293197,0.19783728241761736
4.192051886299556,2.475804175619703,0.2931177511615832
-53.00649552724664,-3.198066970456366,0.21182462932092996
-129.3292731604989,7.591091563638823,0.2574947068899437
133.5233254144697,36.50021668248879,0.18768133097400108
427.17190723124736,10.5465658849774,0.21118314408294334
-41.4291909083954,28.092394082599036,0.15370362563286627
81.4783911107897,-9.20786663549913,0.2912055034781996
-110.21263108499528,-5.419417279037289,0.15596753373301508
-160.9639644579495,1.0540619351282257,0.18217775897611965
-64.56841741161621,29.509833949965735,0.23295774001090813
115.5600832213977,-24.721279256864193,0.20812826580796845
-214.90994593141605,23.998479517299167,0.22059173443198518
10.652363172275523,12.94083846859381,0.25150664068172063
-11.0130222306321,33.255591511239004,0.19108376856226986
358.0156179401988,-0.5573443068361559,0.18249912876179486
178.09427602086168,0.7060133159453215,0.22215024378855064
-29.554624430354444,-33.9129257629577,0.27480337445955677
247.01381885361607,-21.753410206500725,0.25471901811582176
25.276966521299748,-11.274953294133308,0.16176144287863298
-368.3751883749819,-1.201851401470805,0.14822838636194846
-220.2197712520655,11.65041516697377,0.16846651240649915
-128.966260104379,-11.976147106538878,0.19035278213446277
-51.5183294370985,-15.7798302799457,0.19318643312385567
33.264940905892125,-4.862950370617223,0.20013806920153282
35.40408809639014,56.793505967690095,0.24547782246469146
-59.19655230952037,20.664058826234793,0.18662784045781058
1.9591357782827599,22.211079515281803,0.1521988233282121
-151.5954966533575,-15.245944660714894,0.2861570642379217
-17.475106451618533,-60.536932462004074,0.24742816111231078
-360.0300711619265,30.41665076309843,0.1890312286043815
-432.2830108310538,-1.2435120008120595,0.2214194157773501
-36.956688714040695,-9.490232238037681,0.24729521339081276
90.79833190097074,-34.1419055111797,0.20471822505536766
41.97867662756124,-38.12940463871527,0.25584723563575734
-73.17676540251964,-22.281608371341104,0.19741090382248197
130.0495922866341,-4.4323064083096195,0.18205183685888718
154.57905433200423,24.335416363726225,0.21880300683043527
224.95897326293974,30.98795758707498,0.2716865026756245
10.67992242773619,5.473158902921434,0.16172749134126635
342.4589013557493,-14.284432903170678,0.1793503129732273
29.990056545786487,-13.134170968651897,0.14140351351128233
-43.468666068163245,19.849010581367384,0.19694850440583583
20.571705013625426,15.946979910304053,0.1689814070933811
115.70161739022389,-6.722133577470784,0.2387590117323707
41.49448166029358,35.27430310625721,0.27451809293935786
244.82238879015145,-36.678292104294464,0.2994849282517886
298.9023494376516,-14.543086800229139,0.12838074514005254
177.73497224622648,1.7426399498191325,0.26342142837918986
259.7550124460493,-9.03575887983592,0.08997782106687496
383.065273025075,31.474673410529487,0.27305185009076
226.78271586238145,-1.913712721803717,0.21259378420278455
261.6818000437221,-16.669777043077293,0.2501503075744484
-305.6284758346692,20.713107058632694,0.1417589320320095
-591.7351030061451,-24.1081166578228,0.11336076747494298
-86.47223329034885,-25.073115608981485,0.17410373533916765
381.0876648907741,8.1440002714099,0.18720961487046206
191.58667620390503,9.903004977489651,0.06402584060862859
57.107412027381564,-15.620233403502041,0.1534228458281334
80.06765558597115,-24.429440303772072,0.16091972662625814
31.469458260965855,-31.474257695660434,0.19705473474805185
365.41431504517595,-27.99628705356009,0.07688838280053381
167.40388074310343,-4.456237158680541,0.22325258838145828
51.09072312215339,-12.033762310309779,0.20024346726299444
-114.29784175799647,-16.247755973654765,0.24356652270513182
-294.6353571651822,-5.048842430977456,0.17734791741923964
101.69979276081654,-29.83037908866892,0.18359040830341744
-47.347829457687666,-10.035721429253673,0.19855561412262218
-197.9204375131115,-16.792394947802233,0.2253413342069283
175.03474539158336,40.859616706409554,0.1906792642781357
-240.49665789685912,3.8365327426112716,0.14723797158188573
267.4319962696259,17.02764824609446,0.15089775834640168
42.289895274000685,8.658976221668551,0.2135071757953835
-287.59679850208653,23.02691348158847,0.1250142871921504
-357.2698502585508,-15.06065958105129,0.23116283264341425
57.5789670118357,5.985361638782731,0.10746727956318769
404.25213553318133,1.401802742355739,0.16414926641700353
-60.93037706940944,43.093218500691606,0.19309386161987183
-150.72796100936068,-25.62262583825212,0.21654601149490543
-262.421777701545,-5.284431329412738,0.10232912650791497
-140.28296003240837,1.2599623678747995,0.22406705795477594
75.99192540544806,-16.431157887932844,0.2680724957209621
64.63993454821936,-5.580463536712211,0.2236417390577139
98.99710605826225,-19.279216059100936,0.22540121930438883
-178.44404178384664,-3.324230357088322,0.09483364142855906
49.89858538520356,-14.448827263529825,0.30831628201650346
157.40387735095467,-4.409260810853372,0.12601027714433305
126.93644455240872,15.014740097629494,0.2362649534630427
-265.74310064273317,2.0885954835143528,0.18481222614813536
139.19974037471994,-22.06443776198784,0.1895512478662639
15.632991012485578,18.010814023922016,0.22892790020811726
180.05117246626048,29.072367689128455,0.266476915216441
-104.04854218646085,1.6164442724789696,0.15530780938201405
127.86086904027786,3.773858731985706,0.22368525433188202
138.8352302122219,5.270777985271236,0.09312473455098443
239.11031060004063,20.86896163118451,0.1622430246645669
46.751850768406925,5.353128187374692,0.19515051450504103
151.06183590309612,12.203082888920866,0.2174590199327952
-262.12303807557,-3.019491925828347,0.2073281341774499
-75.66356507512242,-3.4100342359959774,0.29804267083244346
-224.8054788913641,3.402648699114602,0.21295706890849755
90.75449941940782,-14.881023015047539,0.16864619644078643
-54.81660425350911,4.087181421434087,0.24691328603935006
-66.99945205487275,0.1296604400352669,0.23463131889233468
-7.486565942084191,-9.102883616787194,0.13425809641239872
-129.17962523651198,-38.69086654827056,0.3116229366935301
-111.44524419703805,46.39325008126718,0.28842035460644877
249.42437212246804,5.965854877768571,0.15236591444732317
-156.85312891673,-7.563598471357818,0.09725625199323334
-129.64024588019024,-10.793525199586524,0.20857462087839615
133.45598242794193,-7.886695117154922,0.19455691433661046
18.087713582161978,-2.4527861469831977,0.20961438518770323
84.11452486596703,34.21110923104989,0.26571144023860865
194.6993618793399,15.221676956184467,0.19601206325749304
-92.72994861959452,1.3572798740343068,0.15059145353079875
69.39688269423344,11.018821083068758,0.18671401587898015
-342.3593915198082,25.99793000801723,0.13309165516261598
-227.59863069985414,12.781591860704395,0.24730146229599215
-41.02187708246294,44.60645425028902,0.2749084246360699
-12.71862366207854,5.322040110683181,0.2518168202390598
-132.82012940361082,9.61475897386664,0.10697136604763308
126.5986068035845,-1.1467744140710143,0.16879568966835362
-251.59790865742173,4.851268571142963,0.2601239452037234
3.767717638467591,-24.128677613810332,0.19891555423107085
96.0245768258386,-43.777103756132604,0.1097941908591632
47.86733941350952,42.615613736397634,0.23847152284088688
194.6732657182789,-21.129367604391362,0.2487633287060095
-114.65005373870605,-2.302242723118408,0.16298601541673996
-210.5560409598692,14.991932931532324,0.25903267818730186
365.1049116709886,26.535184176984462,0.2513267874251228
-85.59258107245074,17.567825600444962,0.22628390976753432
102.24249126147981,6.180988157367305,0.1557407090983961
163.534287719189,-3.9576070862178554,0.19892354275574473
-258.9080453562988,-4.0436743446877275,0.21134606250301535
-14.078229120573827,7.383947558242462,0.22220870362458822
-188.64894222222887,-4.401719337538288,0.22708230967935641
-144.51402964135212,22.531651426952802,0.21609463166994822
59.93989270318145,-1.5058823062177396,0.17544663191710186
67.05126875879112,-13.668710446858972,0.224260945628495
-233.53603487759017,25.082848364274504,0.20892476268428306
52.05885942540519,15.01576840267006,0.1798506227936954
-96.31007904734788,11.54000954193813,0.20736307627795364
-16.094704085457714,12.068385385616246,0.17687846209270086
-241.6810295890491,4.5070025943787275,0.15165682022436233
-24.230536304890276,17.96783279661732,0.2600627013222072
84.15987827320247,8.344806606625106,0.2118967723819562
132.5434572196998,-17.871956654723654,0.16982927599307523
38.94655354440599,1.9562478619618582,0.23678666906700194
104.90778171025859,-51.0334406437604,0.1465433757983729
73.39978602543906,-43.66029823545354,0.21286076746563629
-79.18291605437126,10.637172842496517,0.2752040772965949
13.778010276569198,-22.29408189752368,0.24929773488445717
191.2906951118791,28.867412453573618,0.2127289550903456
132.13194423678095,-34.071947710094456,0.23815359672123027
115.39904245589653,4.976738532382273,0.22279259855195616
-96.16093831017402,8.359757120582263,0.17549305339872442
-242.9561924026498,9.240412749544692,0.3131660923270904
-266.4133109809068,-11.902689855357341,0.23263425263730494
-139.00007135193903,-13.585659778724779,0.11315714750994046
315.0801397464829,-18.07698534997829,0.2067374546246206
-84.10237990699882,-20.608460889128402,0.1887685617230812
-173.81471843506188,-20.708266115998356,0.17530502266888534
-154.3847564305707,4.702107958907827,0.1535681638487148
34.93499714638967,6.599822685772826,0.2560012901584944
-138.36400462772968,18.138328058636265,0.2482947768627275
320.2323410071648,44.832491052084656,0.17551502347201517
42.68109377016003,29.866619406115582,0.23344076594476149
-327.1370751733472,-13.651371054111415,0.10904617668284369
-429.32950778139735,-7.2884037927302,0.30423831787858374
-74.32684229611527,-2.0340086971886167,0.14411902222338982
-114.18530705877035,-25.393584787743624,0.22594004927937164
230.32807394616182,-2.9615049123256427,0.22487809746979776
-123.73931084480208,10.101703376903306,0.23561580218773603
-89.52745283328588,-8.856011309184174,0.06557100551447304
113.20130433301954,-30.68177305934976,0.22596419754678335
111.08780743222265,10.281968141778554,0.16695121857142942
119.8214157428464,-15.313548336299705,0.07809492666877851
246.87878056360734,4.981263790822958,0.20257008541516228
260.6181623215559,29.53084501272876,0.13482533648955752
265.7367036218122,-10.156526648124956,0.176571324560149
226.34714663412643,-14.15764144055235,0.19342383577941283
-22.456223453145476,-7.115981126462914,0.20420016453436599
254.84379184134804,49.31813265756553,0.18984129175335465
241.10106976062102,31.317036799961272,0.171292698858343
-8.127061755294205,-0.6635906694059963,0.21899392243354407
-39.692379145551165,0.12210593325644373,0.11100948304997899
488.3677534519396,-6.938346130780822,0.21996997627324533
218.04328330738255,2.3348018292821764,0.11379116522023047
443.8072071985786,-9.478895683241701,0.2435923948282231
-121.204485395891,-27.31976943649253,0.15262813397396727
-312.0198086203608,29.147885976524716,0.31481085942281645
-103.98995138338513,-12.182314752374221,0.21053686111587694
-128.82490646856246,3.9933000891850794,0.2309585430070203
54.729005334416044,-46.32508594766079,0.18745426224161477
226.1182148924819,15.012301654136833,0.24565759117750702
-78.74862018665834,-13.607501647216957,0.19758848024975587
-49.637149041153464,27.266905480505358,0.22655972404552271
262.6949558236771,-1.7326810399430337,0.11697338138434153
93.98958504035456,11.721088934167316,0.12718490313043437
511.66147082505756,35.658599327130645,0.09071106670135579
-130.50650775770202,21.618008610526736,0.1608865730692666
131.19267643460952,19.920260748287888,0.18246112326278066
107.94534589051999,7.822906425475608,0.18863721566908337
-61.87937550255304,-0.7201840393790572,0.17828786482954026
25.65731056764052,3.56704574769208,0.08291683507226077
332.25047901901064,8.093595242449373,0.11566077812177662
282.6055742649287,-20.970395266660155,0.238088884858198
-273.2497247563232,-6.79346580058859,0.22819408072245465
402.9383867249015,-4.809159494863955,0.1276510542268398
-449.58211113335614,22.772837656648907,0.22444428521604182
-62.66283345959117,6.549011663126148,0.2074613424205674
-53.3917317964016,-39.78875810490766,0.2128292085420802
-75.53103348482847,-3.049585049129579,0.19978649025522247
-117.87068381179277,5.2144514447744585,0.20120960892430453
110.94193374676675,8.445295666438668,0.08766241621064659
91.90327156516133,15.683489019275171,0.22574689218836946
162.45856902666878,12.995864512542497,0.3024838789954112
-114.4779608892456,-15.93180687995835,0.22665756845956972
-349.4683063928967,-6.8261387700941345,0.18943327541918897
-251.81450673842468,-8.277060350723957,0.15314090114835988
96.9783734118033,24.504967571155973,0.22143736782008938
-176.69151056751875,1.6893127866953517,0.28338735610643995
-329.47608489498504,23.470543562720792,0.25453208740359085
-39.964490707634624,16.265303160127843,0.12364471644906005
-146.59366519296918,-12.631743528350903,0.1744744094626731
208.26928254651938,27.366674357388728,0.2418536099183918
107.8354355772017,36.21536291055902,0.20875846241027868
-164.19102036029486,51.70995498362646,0.2284734469567027
162.61459441229144,12.97975359245185,0.21728048002119035
-153.7827086279455,0.17075482673888903,0.19489098040641115
76.68081626746931,-2.3364916558216366,0.24547315889801652
356.82791179255264,-24.96191500723832,0.1745664154199718
133.1247009059345,15.66589332072878,0.24605098609919668
-246.6690890013137,21.231724745893455,0.1885911169262469
133.4206348016651,-13.137133361097638,0.23724840884873427
152.2208878159498,2.5483911324522053,0.17766407789881228
81.0914064420542,-9.483092209443756,0.20381405257462265
206.98922963992698,14.321691407635067,0.17751705738176382
-17.523440396794694,-9.16765840690907,0.16883552346122635
-141.06755369342216,21.16603193719058,0.16447109159705564
434.04791399684115,3.242502477588702,0.25563125828595645
144.40784464529563,-7.492730663585294,0.2575919862830628
-97.50147498923117,-22.870750010487477,0.21300548816285275
-365.1730423044643,-11.399994663445197,0.2150832005341723
210.03518233433996,21.84061595819301,0.17622438972123367
-104.4933398859471,-0.8875722316131591,0.3146370738563867
355.4100496496683,25.690355995754913,0.21213185146666416
107.98268479201532,30.140203667811715,0.25917576485181276
-79.20712282409,0.9739186409192502,0.15110681355250002
240.14006271759652,7.740418356151481,0.13646921748149693
-112.15517635586099,-14.926490994622213,0.26198213044808516
-78.74489216871449,-4.183783549797003,0.19899286373950345
-189.81939206968804,-6.761153343645244,0.2134504637002947
297.54511919287154,-5.295927236091991,0.06397053468752856
212.04238241583067,-7.947416829566617,0.20897077404163175
-34.474326992591045,11.16159365926883,0.15817011932431158
176.7487327059401,-0.559711781587986,0.1941024813664963
-24.052908493044857,-34.78916556909268,0.1469103379343231
-53.883406620798944,-47.311149118556955,0.19336412299308672
-129.9845428953969,-36.28676677124831,0.08430325733721544
-189.08581442449776,-29.069871220749874,0.31265068257057743
278.0069962277002,-3.8988402924211445,0.16997165627816324
186.0362672714891,-37.06640605622467,0.14006453574550964
-197.26699592249292,30.014624152972225,0.2147080936583325
-18.949196452122234,33.621657848469056,0.1951364114515518
188.6809593396384,12.01799827659219,0.21427412994605124
-176.07259216331886,4.673525702519202,0.17745102133758414
22.442337648094142,-0.24367765732945093,0.2368131377896478
-292.12613738433595,54.32835077277573,0.23393355842096997
-34.80320047805946,15.237424451663252,0.16863117215535595
-90.51387664344804,-12.867308091144125,0.26040654972180666
194.76878129722922,9.411131264184379,0.19464150418149287
-281.27026909292215,-37.214719062799304,0.14600148694433335
-108.13571166322097,-4.316187352490949,0.265347125315593
-164.2110355255682,-22.717886177908277,0.21482824733999994
-48.63937022482398,1.6593623967293007,0.21975279606210985
-34.71590185005679,-14.187106555561291,0.1907372187013599
262.5860994916551,25.539935890085616,0.12447088271795628
-153.9934441171416,-29.129310347459256,0.21126417722466612
-133.0757080173111,26.018729595145004,0.1655699869676242
-226.70832015096974,-27.540467649092122,0.1871505016197039
163.39834946791746,16.850689977740014,0.2725441881887976
210.12433856438082,14.461735336927875,0.23344314967032392
-112.12364085907905,-0.13108276131968266,0.27556729328183877
156.94882036327843,-20.174380680468285,0.17829260838134559
-265.2510393987008,23.113265591331462,0.18300263164804426
-221.15363656104594,23.972118706225082,0.12335767349488641
37.56254032805401,-3.097748647316378,0.11402776602680581
-146.08440979893902,-28.876483770208733,0.26117987306409657
-231.35607044460193,-15.793341913698365,0.21069675090253537
53.877880948299286,2.9958010668199964,0.2578843367790151
-84.91009432342904,-8.382021184515954,0.19757512257512186
110.41276125956519,-9.5866927123533,0.1568871586232992
136.0758752577973,-10.946878030456178,0.14941410229208024
51.35263362490671,0.050377993881557614,0.12010006245038665
130.19005104522972,38.42344158819398,0.17480237427483059
-84.5672698044174,-38.848715459512576,0.22137362739718675
380.5810785248452,10.472380704566786,0.2768252331062507
195.36994338330973,0.38376980560563156,0.18099215747339759
181.56821780618267,11.866544914667209,0.2727020290515532
520.9719837269333,12.866837598928086,0.158788939783435
-581.4945753354194,3.901902487130183,0.1973362810904173
135.7146095310014,-5.233436004829572,0.16964393603096123
13.122189048804126,-10.173198660367921,0.184688109605331
332.9934646963875,4.624959254792127,0.2348317170178076
-551.828589713796,-8.184478216877904,0.13382520706993883
-270.8827794932318,-54.6675891321255,0.3273268263588746
251.8783814791882,-38.49793650977509,0.22615012870461373
51.500208556483315,2.2385070534199905,0.25623354721291147
-6.5126084540800715,33.57877914296655,0.20758862040157514
-12.729732485668343,-9.452894211900526,0.28103255805826327
-217.22936673112767,6.496266699637733,0.2792831481593797
-420.0763331612503,-4.499147548241979,0.1824148765891389
-277.2810231629039,27.49908284311715,0.1882900709326999
191.10933666277677,-17.7158215719858,0.2431583871157962
475.9338704348284,14.92725159284561,0.2061121266681584
-12.71026298944663,5.202558065905082,0.14800847625025246
-46.00341290772588,-9.205920347763218,0.19591379850693047
48.65149760671817,-28.85091431486805,0.2260460014645971
2.4911629684534704,-19.732482755321655,0.1649637779303043
224.05603130106817,-1.88036312624339,0.26041689739695095
24.087062157072342,10.997800650336277,0.14898912388057572
-30.97804491353561,17.82307532999442,0.235768484961131
-305.781716302221,13.403936033714261,0.06760248278359643
-203.8099131292317,4.950551337693599,0.1466661606787119
115.63171749659314,-12.0118280087182,0.12725194794411224
-23.532009119864444,14.41565645239092,0.19033732656973862
-154.8793983764089,7.335126849247669,0.22803000758054612
-12.550886804602149,2.786897700548762,0.1460883445483272
-7.601540164271133,-15.79837802661968,0.254762018500382
233.39314596198895,-2.8605175907206695,0.21782159544697846
-233.20819100527802,-12.347201653079367,0.2438436696644086
-152.29360499274912,23.302248167493453,0.18353795871911005
-323.5517410140376,-0.5617953785702796,0.22503709105025743
191.12730909158626,-20.85405674318398,0.29297694663870394
46.23543361264865,-20.862431021642113,0.18825158422655905
293.6261482552682,14.575265164315944,0.25636671165276553
288.73980177952217,-54.88830655550197,0.22797094857273031
269.33099433436064,-22.70268391943376,0.12316050199466176
55.06386753406483,-6.03793969107906,0.2376552716466096
111.99487286536818,6.820819572022284,0.18367842263223297
-484.06177404109417,-14.031553256503296,0.16142795080248912
253.18994889176278,10.433834394637639,0.22250296171864514
105.93489109090908,25.054727674931442,0.12267486136918226
-30.094438706348036,10.650588650950068,0.20220412681050615
-337.16981003947654,-28.484036752817268,0.18440766960721586
95.42517801061948,-20.05001304221998,0.04770926143136439
37.01092163049071,-23.417788869641466,0.18922982827761525
-59.044631902449915,-1.2331810460065742,0.2738244396205096
-173.01857357677343,11.542935860433554,0.19765299978457274
-58.96155178210255,-7.593389770219511,0.13128812430935555
-170.90114164455173,-20.25298489875215,0.2550052161223099
405.29843067578844,34.065152361142175,0.25988785165715644
5.150854741480789,36.235715995044885,0.3304412264726986
-21.705917460942043,31.418766778574025,0.1823539504943275
87.42858737842616,2.2837618352585882,0.20835756958950483
285.44386901176523,26.905155254270333,0.1117638526072689
-129.57140099298022,-0.20515202430595544,0.16908062356353928
217.3710267458767,0.6265518689765908,0.19989419736875283
-31.65095910125928,-2.945772460330015,0.2850203988260296
20.635577432487832,6.133045860966721,0.20577208537232075
344.4024245790294,-29.884411233097303,0.2731911156617753
277.3687677771965,-12.78267510832048,0.181348643624395
-8.053595952667584,23.43639827478381,0.19720344231097742
144.71338916173065,17.437841889182515,0.2054091479257724
-36.58086328300138,-44.5723963289116,0.19329210280261944
192.22676393816081,-42.92746268826261,0.25631659738204393
173.02765706440778,13.798088818767667,0.18448567570802882
-126.01614988908088,10.265964959881035,0.28426259035702317
-209.85897359695755,31.660622040975568,0.28939045131859437
51.028383809579324,-25.185725937220965,0.21704158154932798
239.63084596078676,22.11886713247795,0.1606395346098817
37.30305149710706,44.12556941341221,0.23711630417041518
-229.89030006506178,4.989270382210255,0.20584494488402566
15.055995250994245,22.106899543984895,0.2562729614634999
67.43801331596659,39.0447598572353,0.16753507734633016
23.805043816524275,-8.923491669135865,0.23451847597859962
-141.8973607245639,12.006565038830797,0.19625309438723706
-124.99704151116279,-38.73044064969719,0.18280568448363677
-324.80226207109183,-6.975951689906159,0.14344016912018032
87.0735461040116,34.05777382939449,0.24175096941398394
197.93535775374465,-18.748788020939685,0.23179878401412485
-14.9556340664968,19.218307971241135,0.24178647050167473
-380.9754110628747,-4.050624211478678,0.21008934157627485
210.43102564591263,8.140932288450832,0.2511344190423807
247.2074165118376,26.264989161959488,0.2192343440870795
219.06483685579704,-7.0799894680014965,0.14741654312076594
362.4756165164052,15.6065014458484,0.1988666428360266
25.457129228844156,-10.781456228860176,0.1959187697885031
75.57091901954726,-10.172548493969046,0.20278078757780332
-10.58332655833996,-7.123860334063973,0.08849530712676948
54.91700303671352,-0.39733620101672,0.17676563563805445
