-9.401269066857314,-2.7896547061500088,144.39393778590647
16.074876025183773,-23.086260107716065,-67.12620154517882
4.577476982844319,6.366800560668334,348.98523303378494
-28.492973659813664,29.242388488048515,431.14041865693895
34.469311728012265,-14.639353179435346,395.35086405200894
34.96060013584192,-34.303096105260316,-233.87782145446056
-29.57583735621316,-48.63468059809456,-215.96801333303216
17.399424647085006,5.008158168870888,382.38682428132455
6.39054932456629,28.43560474630209,-707.1741057550211
2.5113504277597922,72.87871935401581,189.81088293304435
-22.247648191286178,21.41514039201127,89.10318958046328
41.22863572083239,9.629988359052776,294.0693472611166
-7.836224301482151,-5.559881600552574,47.06965034405295
8.9177767729781,-4.713523803286568,-219.44327629623837
14.163665450282119,-1.8449776069418031,271.0496232049165
13.170522405282334,26.271977445046097,265.98225941314814
-24.564183439072703,-12.617362912335523,-25.452853247582624
43.51913775243739,-13.01980539196,339.4291402014317
34.06446557113979,6.081228579858006,440.0055694092865
5.803671868530772,-14.984573387588105,36.00504577598812
-2.400260132884534,-19.712986661088497,166.1922675567472
-7.856460623164303,-16.108144352846633,539.2415083915437
-6.570825902626629,2.5417878263500784,-190.19751209590598
33.06607378870512,29.587335571316885,160.9273861749425
0.7062646317224084,15.506520329242628,70.98743180658724
-52.26594870499718,-25.065201412593968,227.3205870396189
14.78131680762737,30.356393248619927,-3.894016195904385
-7.9871653512990415,-9.49531830854161,-120.79681238236657
0.7411987429343209,-5.9023400681710765,54.47904990427173
8.832185493587671,15.551092897675291,257.2301456044341
-30.166202450707562,3.198178002318206,244.6795138160438
8.096418717217627,-15.565090568225937,-18.114545953709154
-29.66689284996584,-26.028858563325787,-5.968673567570704
-30.548952376120724,0.47255240721899117,131.698165070707
-7.558079741828495,-14.056510649910104,516.6537802215057
-0.7903175612679957,2.8138839125388677,418.1775159090022
-14.333241607897202,-33.31549284119141,185.61457642095885
6.044497682237278,-14.438083553245889,125.1392506050593
19.977810741965154,-21.46107759247741,132.9488907237045
18.00410461231743,-3.1554065295527374,-147.59915210320412
13.278479776191674,-39.992822921257044,30.985589106838457
2.9799866989648742,-16.330102917912086,85.48211891111868
-12.777353118611199,18.468186975655193,-68.30031991342507
-35.42132804582314,-24.236750765447326,-175.83708758751538
-28.777330552304043,-2.2513373229702,223.7756145882564
-32.47313048662261,21.346939331400367,-53.44400846900024
21.938086500845564,-19.262445730598156,-220.45720760793432
27.435515537783086,7.686517477534791,-438.8455167002879
15.470351453403532,1.2295996600827235,100.16947698610159
-19.732724061539663,29.57210064127228,-104.31088588558916
-2.5781417347685815,10.93352440374198,95.92578682932371
-19.217059353999623,2.152146302350947,-92.39829414909744
-42.403164943871175,15.022891613332819,129.20542759856255
6.325063372597044,5.438204791443835,-9.880446365542973
27.515911756899992,-1.449992319758215,6.169331583268892
0.764568525471681,3.485029807665081,169.6562641456199
-4.7795884762832594,12.027705911830338,332.8992860402148
4.114728417064208,16.843084686996782,274.6069858902519
-35.994969630305334,-17.39535957783187,-47.86027720782114
13.514676777330818,10.761020619095468,241.8058071415369
-3.3673113151256735,-13.662238128250204,239.20245169861823
5.328646120045001,-5.3986746606497285,15.006414172656264
-14.892515471610306,-25.128223127367125,111.67544254419008
35.50806724550979,-2.6348659845306766,-292.99973028385307
-15.822278606690993,-21.19221112323006,-136.93427942396454
52.96261852155112,-1.387924091988178,502.22772507231434
8.41010664150213,13.37283039082113,59.034061901201724
22.311763571048246,-29.148337837272514,16.025149909796255
-0.6767551479615872,-11.94267805468765,101.1413679925392
35.573643588886284,5.044713758845338,-116.49205067051565
-3.910860150259597,-2.5362988215122293,122.89315125574556
-27.12909174721894,26.53523941870634,-118.8336644939601
16.318580385513343,-36.30323220461322,122.96926110337273
33.5949894259722,23.384279088656076,279.704929644301
19.097151705376543,5.901533003568097,75.74700963697319
-8.815938890119364,-18.918701881922345,54.89227260265538
16.28183907723734,-19.19815109534596,251.63885442487776
-28.228454592798883,22.924944143758292,-12.103449213006776
5.08814513480907,6.992569478660257,118.7378026133834
-16.88585140045289,-7.615998096109786,24.836597401711636
9.387454021351001,8.852404130571863,-161.86097006093254
0.3335954225047258,7.488687383702464,-96.02497504128846
-17.629312706795034,-26.514365962402195,214.47451547341146
-0.3129459993101623,-4.288347079270369,387.712115895635
14.181659257988755,-28.641849370188964,-299.933536439527
-13.440688708375305,22.927050455451617,147.31413285559466
4.84434890209239,-9.329928719697389,320.42817992251156
16.005139227336386,6.047723453002341,156.0090628765205
7.289417199288081,10.020458028149136,-105.1263541745476
19.59961305883847,19.178574954608486,276.1501107078949
19.681538781725415,-39.15785443821938,190.2096915673166
-20.44758793623856,20.28567819953144,-157.20965944326326
23.642024396424727,19.910509115509228,259.9796306190344
-0.06513514641393228,6.39149270198649,333.1520690105469
-32.921989283724386,35.62528426557523,-220.7058604984519
7.033051178647983,14.394781910095853,-151.2843883415815
6.770800915610574,15.802119220463338,-248.0892339549619
11.530873438110557,-16.855058176108834,196.8516858863099
23.566232327307088,-23.361045254274533,49.1464013165033
4.586380200034282,0.42529317108092757,57.67870009292551
5.615067491129447,52.12078642907094,-11.624022846039907
10.613118423481552,-1.0667681137537133,421.58723812433215
-38.33550417038823,3.7736786288082214,236.77613759580777
-9.83443399935205,23.33029621816057,41.69857278652885
-37.060863629775966,-1.349595565455329,66.98756400529567
-5.495948235319742,-5.822209227568925,-142.14692040799073
-3.923390594748817,26.850627155475102,-192.3373503734251
-6.531802205836705,5.86320623922536,-266.25914541898953
12.123442606773743,5.260521797092457,64.83694385028372
4.497280818327306,18.981227464717033,184.53825905060728
22.22584185686277,-28.982456850203047,-182.3161567855824
-8.754324128391211,-13.258620396747398,258.0271059035827
0.8529816987601956,14.56081315486845,137.81020908493522
1.1018103089277402,-8.277066826700711,219.0400574015321
35.18114744710221,-14.80120181977491,-95.2238297705484
26.92726415592834,17.420353682168646,237.7185680650624
17.220365926369155,8.277183119103304,104.96531599903642
25.67111395100413,-23.215351669800498,244.40973933963315
7.550977405310881,-23.49607660433652,-46.27063152796043
6.7068964620764095,-0.29148975237477565,350.2158602184667
8.91984609328252,18.45030719066618,-57.72150283344608
-18.37895206956456,-17.61384565134223,58.66178276142236
21.34060090502654,23.430719019474132,-53.90737921203434
18.493209540727783,41.77672313085576,-41.75898762693117
1.3920171931636558,17.70974628746569,-21.79618015245157
-10.668794858194497,3.264466792648608,-185.5873337812865
-4.259642159935907,-16.47926216716324,9.843120904113562
11.221346946443573,2.7562028373165406,-20.786896796921212
37.50556177443758,-1.419837576754552,157.32435024556042
-11.849102936906455,1.7620335341786695,375.3314269621761
-0.232824239973435,-29.18179244885803,-51.276252400517734
7.355115959679264,-44.49156943455385,60.44465447152368
-14.273472743258683,-36.992923946966904,338.11384994349675
17.73650745761271,-24.444152475557352,307.04917701412114
18.251562362599888,1.0917022937893106,196.93199531257108
-19.8942396040407,7.5687803243883796,493.2672840711207
12.81716205709196,-0.6721375906495344,6.961186443454132
-10.989794543470842,-26.377090521548695,-402.4155623098146
-19.16214348377016,1.2411871095030949,128.81210017049335
5.8871455634386995,5.773790210280377,38.936064112523056
11.642230740271554,-0.31301271386134066,-178.40479553113116
-11.15218552224512,-1.7213662948815436,42.095457811879285
-13.879435815441807,-14.077184189551293,-14.617254749334293
11.69029894937175,-26.731795622400107,-82.52254743178
-9.494661892559872,-1.527926431835371,-91.97255196893394
-9.889215759151565,-10.433350694221664,66.21104076342134
-1.1409602938512755,31.080115485869705,102.89180520064498
8.143358587379762,-49.762818463977034,-232.30326459562497
1.1018918013474754,-22.272823678259495,81.85240575818736
-24.843631602807676,16.654985258485166,24.214638881448224
-2.3691057071187984,-29.59767074498081,476.23198459827074
-25.13984433958244,-14.24714651544277,-106.43356184041255
-17.997494951231943,28.999493347297026,112.65729869516979
-6.726100332481156,-13.986768041937738,-116.37816209577207
5.446584742162686,-9.462169047711997,11.119785947731351
4.183578665478268,21.849860789008225,-52.31685941374924
2.145019301286592,-27.100506966465908,-281.1779023779184
-19.782316436083967,9.34819345383558,354.59680361166374
18.882391695898544,-9.103209389292147,221.53138783136936
-3.709170418516734,20.48705575893502,285.96591523164074
31.458768480680185,13.042909968062837,-25.13707869223549
-32.986608778258265,1.6963467276829391,297.78417411307606
-6.859240502530584,-19.401851864434157,-366.4725451556398
11.70862717023309,19.315595595613317,34.27508775979597
28.031801072581363,-30.59709885389426,338.405124597582
1.057008940812926,-6.449791336542205,373.5689010433265
-11.359658967587487,-23.450271911782593,1.8341793377287274
-5.825181153184795,-6.74899142812203,-18.272875191038693
-11.965059246258434,-17.424152078919814,185.56086756117574
7.670280879807708,-27.090994742346087,204.06605741172757
-29.618624111218345,-14.308947419749789,476.83216047949946
1.718424527586622,-3.6560140880300454,172.2553958289144
17.888683129081436,2.753550295893655,372.19396836078664
-20.384272396338844,-13.924372448270104,-321.59746177220893
25.724803604779023,20.08718760402523,-65.25071791304764
7.6495982504173545,2.6680855467915228,92.57765537517054
-0.46939326226441985,4.816172367942918,-175.60743885598023
3.277773415821335,-10.582916240986053,-67.6737316094675
46.693872709589435,-15.510451549080265,-33.94340625621585
-2.4410796294590176,-18.640174069101082,-139.80665416483308
-29.110886713201097,14.547843748172566,-113.7326256980665
49.28553197283941,-6.2849137828267,110.90939539581524
-9.814701658068358,23.617542409607182,324.3897165155971
-0.6351856734377338,-23.65639843897952,293.68619036172083
2.65509615350005,37.88497296039318,230.08588993141154
-16.847744753741623,-3.4376148208290247,70.81922670152639
28.761213790916567,14.772547598321514,-32.05525646521036
3.3356981098430234,15.17023580465882,-117.74159676740095
-5.493886831491145,-8.375169129067725,302.1771109572901
1.1975903190089392,13.34791733248805,292.61975396739365
-2.3135192656855104,-22.156712660372925,-84.53983857670656
-10.950388321177794,-32.61308824613132,209.24453687884818
17.577684438398173,-39.45139454120187,230.28127023729832
34.214023165712,11.68108864103436,-257.2532538976415
-22.84245712414307,14.650730449188426,334.4254983541792
-16.829744633075755,-23.12758656904494,268.4100952962011
-8.964958033292675,43.96896959146731,-20.89376710260315
-15.522470488130576,-16.780360794618886,124.55584989336184
-16.686944352565547,-4.608559429639605,-64.15895787985389
21.60432869400244,-38.67647353639789,40.55810415472429
-6.330290378889643,-9.154764839999798,251.66499139712215
5.703301046984771,-25.905024816245536,247.91794886246436
0.8962363133091142,6.194868954935757,-73.46198586364014
-27.958359470814056,-7.496064030924364,-99.26242945424389
-23.78166703893569,26.910910837877715,127.83761994618192
-20.459191270001654,16.37630226180006,-143.71758481492088
3.6141609868556746,3.560857494860933,274.31917161776187
-46.693879845596484,0.3387370597135423,-75.94772081440044
11.073753046643214,-23.710774873113504,-104.32249919326298
5.058038053027214,-18.120268183064002,-235.92983625505627
5.632143459851014,34.00612514540731,185.6730928809435
11.081174697659687,13.77925659657432,48.079987935835746
14.580860297474608,-13.417671806206009,-69.12131740643144
-19.541873380106075,19.283267477991878,-21.738208307183143
59.0007357733494,32.44362067807016,12.666412059452192
20.744289145339216,-28.323785571345653,197.6588883091232
3.8566711908491187,-32.24165855084224,-114.12793888083388
0.08359963357304992,36.99655865635766,-24.01811971356726
-28.305579442160138,14.0849852637104,-20.260228804707438
-22.233035370561428,18.322952121111125,-16.889814963677807
21.132600450748352,2.5157829067019537,79.19586443052411
3.871359197861369,29.557951795402865,251.7236801468377
6.632903835103101,-6.5717519586354936,105.29805933729206
-23.250302494691717,36.11175388883167,130.37353494222947
14.4960772510733,-35.97811109249538,49.97204558732059
-16.929657249854422,-10.411334916741792,11.630530401130443
18.02763982785918,7.276340798641055,-42.28245293885223
25.818980144917703,26.98807789745214,160.55168809689422
4.528390064981337,-36.472249599158005,198.15431781691225
-16.251727493647724,11.090532016021973,-47.30359227682234
-30.875621525312717,-6.41041054492764,237.6556417153468
-30.859405804477387,-29.437783956332225,-26.45742359634312
-9.786290583725167,-21.00080987718989,275.995376260583
-7.089744715154371,20.377585130326594,-206.4803653012251
5.670188100326875,20.233152183148498,71.53523232432158
-11.33583168698876,-0.22948671072295995,202.2953667437992
-15.677250830869871,20.66738275911152,-59.6819969990715
30.557261865389002,-10.452722952201128,-102.07271579484492
13.391604497664225,16.493572530132422,-318.65324452752395
22.910658052633725,10.582853929027072,-92.62950503670805
17.59419197094756,35.94856179525378,75.39708502164588
10.77948995062946,4.388169540887448,36.98126413395826
-12.310142697027732,7.638644813207074,-29.30244650540304
4.618733252422692,-33.72449655153098,176.5862418864459
21.28795116156639,-6.547751281556962,-255.3781871337501
-39.160555741372434,-4.513197373444934,-153.22846080286467
14.243362862620636,3.3343044729298144,-69.96708766992579
17.06192056383793,-10.395313699524149,-74.63225880658257
28.123083264550797,22.692497520278604,-142.05943083840998
-7.924962791849963,-4.428272375915535,9.792748573496667
7.269036684376328,13.557797763049482,-100.5526583137354
-12.039397154855834,4.135677865641644,191.14064637599307
-24.158077087899073,-22.24329136183748,-50.25438501210941
-30.84118508907112,-35.49552244309506,4.410574534617318
51.52102535218455,10.912700949968217,94.14468492124814
-2.823255965147007,-10.661922081012342,359.2141434168461
8.352142016894195,10.400836143815448,503.7207196831948
-35.4509298011331,28.57468222396541,-6.136861485361052
-9.681601766337124,17.298486655495942,-240.04130602835545
25.781326807093187,-10.45114247988954,-160.8660735225191
-0.16732572561631903,15.14825827486354,-146.301836147306
-10.374197328435928,-11.742371910465625,200.43224900626166
-9.871565874210418,14.102219595202785,-165.87710586668402
-5.87380053281631,0.9869040845305111,85.08855101031787
-15.001942486394348,1.8365142318966927,128.50442368382147
0.3919806901694775,13.162930483952898,8.969790875625208
25.645149368576572,-21.72080668721888,177.55073516441695
4.8327727263031015,13.199630525274275,567.5508886436373
30.604803987367035,-27.76321746498759,-372.776342412552
13.935558054111723,-18.734792964725127,-37.323468401337536
4.378857815273402,13.721571183754852,339.98869446626423
-48.50218199862492,9.565897814771906,-169.05844244010407
-9.55643942302512,-3.9103760029356858,486.22321547079974
-0.47667540837545813,-10.494176316414292,168.2375274711593
10.814505311442042,7.187792941401687,-149.4764413367372
-17.988564546591356,-9.560627196746793,-140.11865133316542
23.43340905850427,32.49280859068927,-376.61675660031256
20.93669824794828,-11.80603286859249,283.19712672108653
35.520335996179554,-19.78072360335158,152.30294228313613
14.446955931026427,3.4968255158937938,335.3228028239862
33.17270856379858,1.329125718764104,390.82820427146487
-7.202030221485113,-9.391045923088207,506.2489951350661
4.890483647445388,17.149682429918048,68.79355636651162
15.259728190826852,24.690694417760497,188.3393676314143
19.198735553698192,6.736829632967441,-200.0837890189846
11.323730466556155,-40.37337380079091,-76.65978754143347
-28.512870810723626,-14.425472632570491,-46.77987318426746
2.8082412172528466,15.097186234973739,269.14541033489445
16.61727134599741,19.225804760428716,-169.80707614460502
18.27813438263081,-5.139590975022382,-386.998205261599
15.379055771164094,38.55697602747601,-197.22251741498846
-19.173472735109197,7.1663686923265635,118.39306432162664
23.882182176079354,-16.408726468947023,-117.22537395127307
-12.449283793699355,67.98816131187814,-8.867598176209668
-8.018560948257052,-49.36594490928802,-164.09265253817927
-38.08408137827776,10.259168874097472,108.0514592918173
13.624590779431884,-14.523192813864139,-59.835860832835124
-24.008833229727543,2.7895281007142114,54.30225844133408
1.3729164757749956,-0.4910574596789877,-112.5921178411509
21.15471387934065,-6.86736581402521,-2.343983162636796
18.15644017975044,-17.988790348285892,-80.16014559033837
-26.513353874907622,-0.8954532247993547,-84.19536179092853
12.747915869168867,-9.657007731327322,-34.181808786772564
16.88309167013504,-46.69304229357853,-367.3830050933789
20.56324299384167,20.404599528827816,-98.51223309760232
-25.37042941490244,-24.926743820728227,-24.098463181536474
-38.716065717614995,-10.735390538788348,-117.30099885046445
-28.556287164491216,-12.62635455560141,422.2704313185574
-4.971329630829594,-0.08932882321230103,-23.67575241324927
-33.69437840477007,-6.056334815369182,-55.368412111801675
17.2937472771611,13.967401070134217,117.78308783571848
-20.28841203612352,14.758324901699037,-142.35487156493946
11.221956790640577,-2.0429923631946045,123.42043982827917
-24.23701557540719,-9.058257326876689,188.31707298453512
-0.4749270184370401,26.267228411543293,357.42098119352016
-41.09947317516002,0.7877376576293882,291.3939047597515
0.2744643361811199,8.721832165542683,37.33638575619112
3.851884024403682,35.39998884789887,538.9163671354664
-9.663698770423627,-70.33959617511742,-219.89434215057304
-26.927055366042868,-5.344058177967941,-114.79602637244207
-1.8787565009961884,-10.73087769519793,-252.41970175485363
11.669050669951865,-11.22999008033624,65.42663884060875
2.4049365413351156,5.64396658758814,370.99971213370344
-30.959778661023645,9.067333345737525,-265.1484917677207
-23.359753177746462,-26.62949292557574,147.20469680871474
-14.696632949845426,-9.505407268784134,-130.5746137307175
21.623178076090213,56.23798521982444,286.9720798946196
32.94389746184727,-26.301962220347974,58.38687993391761
12.4022309350557,18.34567736306367,251.20405943597808
1.4849099918264763,30.835584932426272,-299.87333604626633
-26.756521903062755,-11.868493509611223,32.25710167428561
-7.664502846990832,20.16390446390282,36.79519208898936
25.795201126194193,3.226260520946221,117.56880853886926
-19.678442837049197,-1.2166775724768346,44.378355157313635
-7.516861047170041,16.112449217686123,-54.26257135730023
0.22644738414026863,-37.26919616907843,113.25978840989421
7.4916213358982,12.844673744564139,206.23464036872633
-13.150281624330148,20.820395865982732,-231.964109670732
-6.842150792720908,-13.090592547149091,136.7755007888622
5.611869196855057,16.092954742403393,-100.78024332129121
28.156869722758216,31.668565441909582,86.74748487963359
-16.726002693843615,3.3142382732449507,219.9241220589739
14.597788741453455,-10.90254212224506,-356.59859339094277
-12.87332152510404,-7.962043199630183,-266.2250226309528
25.07310997310357,10.93655317913987,-6.458575400411206
-13.541268542958031,-24.175308178935037,31.297712918260633
23.48405538014639,3.760625703679098,96.15174534286886
4.690251802466144,-12.19223499359777,-96.81653281113807
23.543211986570075,-2.858632680141504,455.8062924193918
-33.10107768225505,22.937379617941392,204.92345419832014
-14.700720871706725,-12.044423156577553,-189.1098311236522
-29.622876795446853,-37.50016988021827,203.78895443257176
7.305141967827166,-22.713661802612933,8.394009196092533
-14.727230893065467,-10.854438993757583,226.25655947650876
4.884982025222431,10.32573907169799,-506.0107088000659
18.86046117930669,-8.469402598343626,-200.8745035304631
-15.53701610462117,-21.916084534745526,-151.68528954034645
-25.65373849737192,28.76547842919967,-43.736127569222745
-19.088959711275255,-7.455502645940061,-238.43422964416192
32.30206990552398,-29.619504202938725,50.47926730531539
33.91452919404133,-20.952898431118125,146.7124268601812
17.07023867309656,-15.038013120531865,-515.1247450170806
-7.556541674403739,-9.525592567937956,227.03896245623818
4.197046140027799,36.296096410318526,-558.0756110402363
-17.504903009411226,24.87521045586208,146.11499793403829
8.847298608114249,-21.001631989166842,-250.6668224030829
2.0261390082272306,-0.3222855535159904,91.06976454994711
32.71660013560938,4.944786054633112,34.48939191584114
-11.419263008315522,5.800272521559485,97.0920631234026
-14.455841291569318,-37.28489857999322,-33.52910137918494
-8.25338409239293,21.561585289636508,149.61417826352724
12.183811535687816,5.221049245342608,-106.33154067205993
-0.9707140222993282,-18.675123059081326,122.00805374257739
-10.04952618542804,8.628325359199469,-56.07487148263881
-31.499554584956865,-38.36527734735042,150.22047983138282
2.020568683303567,42.336144874179226,693.7338168128681
8.022132982707005,9.26836374417052,135.59030576478375
8.579644919301131,2.490044880601177,194.72029584750655
27.260323117517636,0.5463058435608141,102.90668739461856
3.977683237943732,22.133869087173473,244.8827641809461
-7.392970008169191,55.554483340211355,133.85913437705085
-29.565457442589857,7.319038531762923,-11.61816116926294
15.386196060172427,10.25987699943104,-389.5017907273343
-24.461929999255254,-11.116180165103483,60.58719772013622
19.906387477346268,-29.074684826212636,-55.08325923971174
3.376249363924773,21.312259045448926,7.106853934592067
6.586713857805765,-9.791229664899538,243.9853219014941
9.543203275991255,-10.25059068660816,-46.393603807043945
-1.7399125754865166,-3.671910176543766,374.67453411991795
5.219013441386925,-37.66548595936707,247.95096636918032
-20.422542326376266,15.07362240466733,216.55102286408746
20.261042474536563,-21.841624138042967,-110.6104924852082
-19.82466131500538,8.992318404169952,381.8021316871822
8.173325918679993,12.30909297748348,-95.35092565017999
-4.3132222162206775,-35.63416494702749,92.80818117835283
-13.360882870136024,-14.287598955810918,-4.573766049974061
-31.273065551043302,4.662288260198974,53.98617118504795
-28.670499910476636,6.1841885325310475,142.17762129037715
-7.143699679599811,-44.113873631091316,350.5204895560779
15.03323115063983,13.664529170117955,-42.43367913615255
-28.932109366871572,13.550667115913113,119.572331840282
20.09250845302093,26.746552696501272,-14.21058456943139
-19.504777064725072,1.3882116356077467,-40.59754861518783
-31.62549122295587,18.623311958727875,278.9484003106571
-20.55695001060148,14.744781400167204,-12.026439965485359
-3.648725274875945,-28.700571696360164,-253.7141513452832
-14.666744949577811,-40.63413767497903,-32.24913770254304
-16.123062714838504,-3.8241903483490542,-20.17242564664562
18.147869057682286,-23.6520540937472,-121.07216376320989
35.14544573085263,-41.20155324628118,149.77835076588678
0.9651296566676031,4.638712493296903,-39.581917759475274
-12.287154436211662,-45.14894220580415,83.64655058708564
19.961012684740936,-22.153949169592025,-23.673049418577023
-0.9239719099122401,-5.800173536585984,-25.398239262372172
-4.019977291935569,-24.509455137101376,54.80266231339542
-10.837403221312785,-11.311287908281958,170.83510798726846
-13.633148524080612,2.5365535309860983,-169.0602626402339
-7.544588432278441,17.238286583736777,191.34252139975524
31.81229392898054,-31.90592229275741,-361.4280537004597
3.282235961080497,25.976378264521447,-190.5705423686841
-2.4445562548484925,9.057764422216724,145.61484315330424
-22.64994127827994,32.78761984140384,193.12536352644557
6.402494808705858,32.76626031249457,-176.57818708250187
21.398957875118967,-4.781545004979807,233.1194818329461
10.997739753876335,17.69967931900097,-298.1928492864643
-6.582241099740418,-9.337022898420862,-74.78710876976409
4.580144616560073,-23.496156828763066,167.03136629259149
7.504368531922778,-15.477522194663571,-118.93564033533858
-5.1194637503169265,-25.537223717257476,-56.47424223294986
1.8939751977981512,-6.8803791307876665,287.1882554090323
29.922033457032047,-1.2859433210340012,6.748755120265507
-14.97838725772442,-6.942851846446833,-35.385989134828264
-18.312667734885075,-32.776703985191,483.8433490170117
8.919598269073838,-30.756845634985265,-370.9657297405728
31.48866385088398,-7.203335782820247,25.42540679075419
-0.5935165054794609,14.36127693708045,175.27213904372104
13.49546547485714,-36.98431879381444,40.35018082882361
-35.7620866842571,-14.145927494549381,267.8151723817521
-26.868775459418078,19.579539161605354,-200.64840098565924
-3.5081569890386852,-6.461789039632136,-335.525734622997
5.311350477422495,-10.576123462406777,-11.933407645231142
-24.396205730239274,18.17567836988279,142.2218252257067
-0.4560586589258787,24.12741965820391,475.2287968563111
5.405534848233058,-3.3177746341713066,-329.11334961149606
-13.704178258768495,41.07229514972183,188.16806298398825
-0.23370140655048224,-5.962036790660521,-496.31696837180573
21.963220088034102,-45.265650087483955,-215.206667511096
-26.082225731626146,-4.846835887422205,-245.16748205730215
18.194230483298295,-19.346695400956982,15.425230129437765
18.331755049620316,31.891214548934062,124.16497480037869
-24.377045705133526,-3.1647914249062463,-130.51719312887263
-36.457849478769646,15.67871875895008,269.99213101494195
16.33135818048188,-39.614916696888926,54.385445232021965
-35.56995263349916,26.405712456947697,134.39538759930835
-5.186589242026333,-11.141090942122304,143.34314145672266
-15.704816584999337,18.263452267938,-249.55851480506107
-3.3671088043756225,12.727815027116968,1.893201293881404
8.531907727917227,-13.790194679773558,-289.2733187334568
61.38431895669954,-0.04176637879897891,-72.53696167863819
19.82546599096612,-27.415977282593794,194.4902475721101
31.160084566499698,5.182433965167135,-89.69904199351356
-3.433794909904051,-0.5105153056129897,-78.29799609288332
-17.51286710397728,-19.10265856752319,19.835192556081598
35.161061801699624,-22.358215209284825,272.01943446684083
-13.188895502310983,-32.472738294689265,123.81264158745623
8.338166317470906,-10.90664342894648,429.63442036717805
-29.632814245183337,-4.596979039660328,-104.76784111689784
-32.3779557973138,-4.768677781556677,206.8056366767326
-18.786070575219075,-20.089233845531453,-83.03462823060221
49.05343575870302,-30.098814087458372,19.81291722117752
0.9548900286150092,28.76535505012711,-297.49943195295504
7.8992389384470805,-17.414105097432703,-28.896658348697386
7.96340603840777,4.527222934217964,-42.24436414230294
-6.68861218651187,-3.57128540651034,-146.3916092033927
9.718218387337501,23.93312658869421,-184.83550453408589
20.82748458048465,-22.30419405893205,77.31148144190396
-0.5046500958119075,-32.68492275343476,-381.252259847573
19.37555137763529,-8.258807114959668,-232.94305236472405
-13.83638822655299,31.42311695552435,329.67442832022635
-10.6098059582332,0.2613472731662143,-0.993655270634342
-3.2907707262395185,-6.209075450351067,-87.09386272469695
10.868803274685998,21.356760472910587,-182.0166584111045
-11.727999509737614,-12.556479337924804,319.7584454094688
-2.3161196831924733,-18.824243396116497,140.33274344182385
5.87519510820015,11.934781119801528,207.7078287942514
0.7233673466714329,16.647442257192402,18.03608345874134
23.453124874914714,28.142550216372747,51.54021790752401
-1.9165696962251568,-21.27716791811814,-205.49620570262337
-24.53999782547553,46.744205191632204,216.456806835398
8.62565901832357,5.4610767718789175,323.19896339602565
-18.547305627054477,-43.14387079229262,-181.48383624025385
-11.339931071785996,35.93830928561309,-279.42582966135825
21.40812288158566,-4.8124672372237205,238.04777653429292
9.611010130520777,-2.984797173733239,263.3007009658988
8.80005576388181,-4.396281589669905,-24.68268047222098
-23.049603276910922,-21.703460453608425,-311.8090839450434
-6.4649701126274985,-24.55027604704317,-31.69401988054524
-7.240215794977347,-33.42416140509982,-61.81803690438656
18.31899212844451,9.702774759326335,27.669587267873368
-2.1757405731151143,1.572039476087474,456.68724183657866
22.659825020462378,-6.320919817062731,72.70105400549535
-25.6444556789703,-11.802783741395324,-301.1363776957792
16.58653395371309,-31.018158352310813,49.952510282017634
18.361818115329882,-8.043043424974483,-397.28447354291285
-41.5833326172993,30.56357338578177,-72.63205566053215
15.868786850676443,17.278666991663304,40.85390269676834
-13.523920604755244,-7.531441793015369,-59.9223005179268
17.24772929520717,0.27405706795319845,348.32338643517136
-12.80841781891058,-48.94932118142698,4.187535951935914
-29.674678946390586,-6.447051739973379,190.13690076825006
-25.883975888304235,-10.221979407576269,-344.1565980828603
14.73876230651908,-19.994637058000777,-201.80981160399242
11.338541958135247,9.900889329285974,154.57171337214032
28.08993814146698,-16.814155064613306,3.069682904336389
-12.055428282329324,13.414468643895194,78.45071500802723
-40.88221953003646,-9.628925805996472,-252.99221070636167
-3.113799738494292,-28.255266911828436,-43.57491483011049
-6.728658673475307,-28.01803704289069,200.24927684641526
23.618991345068352,-6.0069351097899375,85.57401415075799
4.240986618709242,-18.232910980042472,230.93622355032707
21.484127598666234,6.181923290140747,526.7682788883925
-25.309823630702354,-21.40101655732731,155.79599276597887
19.84811822783604,-10.868296838121127,452.0383276201903
25.49922305694851,-6.055672016061306,-232.34464814029496
-2.3024945791132825,-1.029016632429335,100.71333039772318
29.561706936563507,-9.617665561843438,201.64704253987247
-19.44756128021521,-42.1402981638639,-13.460848552734504
7.748213154539299,22.794638227118675,61.8913411174449
1.1576531333084852,12.966551119722496,69.66781949527653
10.883812670310139,14.69969451532133,-6.886115404847239
-1.2283960502486315,14.16388244787527,-21.083412416048148
3.6967771866264365,-29.558063279577766,129.19111822978175
-6.95497953358677,-5.984070020302918,-128.21981773712864
-13.409565981541085,-20.572062721238087,160.3968399480485
-0.875632278359799,28.937767686130936,309.5234329102709
10.431681979468356,-10.08501456971288,112.05524490100944
23.53975541156858,-3.933078869463294,-13.381572430030722
-3.690716859201088,11.953854432478725,110.81435675496806
1.8794736601024904,7.8442628553020395,-73.43379200920562
4.052701726991922,-14.915041415401841,188.0343816564342
12.797913689547965,16.982586221185528,192.20541153123526
10.244657776803603,-23.554058371284007,-34.61494417362326
-18.154321845017783,24.27567806302683,-299.6328338299458
7.951332486310941,-22.21045308731179,-122.7591668955179
26.141149712877237,-2.5925003659845163,-173.64630940450368
17.30113761774279,18.283503323888976,114.15664110517834
9.999801809035846,3.8775884026835943,-133.47037003234544
-17.753508080317932,-3.38443645021718,97.65715919071673
18.102031870254446,-15.183774910914975,-155.19901047843837
-5.874301866314269,-2.5354476394911245,-27.91206310008306
-2.341795970203861,6.65219964911949,-201.02028008178542
-13.629005162108674,6.525101061190104,-257.2478090232501
22.01218832951438,-7.154589531495418,114.65312696153521
-39.51468253389479,25.859825907016912,22.066727805830617
-14.166806730045003,3.6202607607967128,-130.65362414797167
30.12718909736305,-1.000927258695462,-93.92900155305543
-12.1946273047903,-0.9669676774072032,-172.38335639066142
3.08366408551835,-10.649814919403134,-49.09194045110873
22.92496079364677,32.44937343418413,328.5647674752195
-35.993812753858066,32.451646822639326,-181.82694337437027
-6.7343299789491295,-22.533621795433163,478.7490241521574
22.475202871856204,2.506719062441594,63.95138452087004
4.277686117479924,37.846351348546825,393.6448030128416
3.7143864742237453,20.30128309955696,281.4796977757119
4.506227061892624,13.78139703516419,-118.65912925025285
-10.723280818063404,19.529490679367584,356.9131092418184
66.77940723843408,-0.4130301476042857,-77.42658652445982
-8.364036155641113,-16.18985614830672,58.07724907627994
-19.071493272475678,-41.512380738141346,547.3747010211794
-32.403822139830666,0.04200777909434999,125.4915926012768
24.74538538972773,5.6029681845237125,88.51921925012122
-11.063409189123156,34.99910133942136,164.84732469128727
-2.9248203520285596,8.209493495148848,224.55253924531397
-0.5681015929485708,-14.227792530663006,79.51056631101278
26.90526612311347,6.089837134404553,315.65084005078575
1.02342245452097,-20.95962168970381,82.0608369573969
17.271587676077708,38.84989213213913,112.63052874424167
12.113740671392861,1.1460413656909214,192.1006113799683
-14.902778797637772,15.186501678542498,46.24115412951284
16.3349051443617,19.805121855088505,-30.21859059617124
-8.592011230410842,-5.129474140313949,170.46898248699375
9.41686777427119,20.358548094581582,56.55390350058154
-5.06527925768933,-5.068662095210101,370.30317970239633
-3.4097777486055847,0.7747899124004831,-406.4377802632368
-8.304705822651792,14.72195754233615,150.4559147949534
-5.2759375304922145,7.536106298459312,16.954176589819212
4.7699030383849585,6.846806697563607,-166.29180982157936
9.688659733038147,1.509508643732147,-76.82867380447895
-43.06853148599785,16.399185471864325,-154.28324850822958
-1.2473331787399613,-38.20559703281381,339.5742163538942
-0.7826485599666039,-4.912557183290732,-28.289458649193577
-4.05271682177664,8.545668832007808,32.933153749933076
-17.724548898877323,13.510222532273291,-140.16885024391635
-35.89920757416741,20.05139093113484,-156.00803245246365
-3.4795302434876465,5.552528258679427,165.93904141052013
27.504608168179413,-4.433264064258106,-22.792026117420193
0.7846526006524153,40.303580073231736,-8.230233231894537
19.928084838259494,41.456370191012525,-112.7405877735952
-26.018791800828165,29.16876996289506,-41.03547686586282
-41.06737659756908,-6.620797040801508,164.1512746398735
-27.905439615506204,22.882838503107084,81.84057605027961
25.168842351830598,17.327727111402833,199.04036690838686
13.963543099422854,15.80440527218536,-287.38865902069136
29.63427720286948,-8.662932664898396,-72.67206848651688
-16.663343697048838,-3.383691188524982,103.38938258163154
-25.70743811924912,-9.15850152900197,-154.83958778587586
24.59112446208725,17.340088225834315,283.54379685747745
-54.615239729558176,4.026571552557522,-140.41530909354017
7.108050412138858,2.1860332956331026,15.175460209789748
15.470464436620503,10.657144455125673,281.0478935208219
4.845699660424433,19.57050093994549,89.10885515078343
6.245309636447232,-8.142682342425676,121.71721577355224
17.608764691560822,50.20155100936381,-121.32819654155168
-35.21822933058493,-8.915323083214036,428.17393635539895
30.75613503824733,23.00866318781669,117.2282940072835
5.422991036478379,-8.149251918672991,-171.28412721463712
-14.540626481361258,-21.55039628975991,-42.90502084391346
1.014792744333278,3.493519263315582,163.15205804402532
28.33357961029727,-6.809991716279825,-72.87048798614275
-10.685100966558686,-13.260258438838504,38.17502852945148
2.8698442128842894,-21.731847779246188,31.980874064761373
-24.642129337719357,-9.855603984496625,301.2715907130233
1.9547855104463636,19.570180277750925,156.9054093672088
18.380957431747547,-4.065254837847292,-252.7722100617463
-12.352129572138846,-20.136288092919507,-100.6353182605408
-7.754169706492547,21.59055717742929,109.37852876950362
27.28284504651745,40.27463514262057,596.1335971825712
-5.795241336834738,-15.521703884469444,-69.80055243301986
-23.351920239692486,21.47190261671081,-74.1742025854666
14.197485074854953,-18.641728374048967,227.00667160057316
-48.70406422060951,8.49506128864482,268.04958263565516
13.051595905974075,5.056955966547089,-113.30840320393952
1.2942229899006858,1.0350821645834714,551.8357916161594
-15.40157985943998,11.778601787109908,237.20759825688467
-30.30175543606695,-11.30816358033006,-160.38432800990896
-21.415264453041782,12.434449963863646,292.6985102702222
-11.883462697883655,-16.255421260458522,-376.93303819986033
-0.46527596421345074,30.173540775369837,-156.03496737206203
32.155168063521344,-22.061806183783645,-244.6980046444515
35.056452589397,7.376945124456016,362.02883540495725
9.75397592778792,-5.237505700532611,-255.1508532979973
-16.56275013776167,18.592412409010073,-3.726864166553547
10.886429866692493,-3.2963851199355894,495.95463853994914
-8.472680524420168,48.94484969754967,-85.44050508057643
8.304709029368574,-6.080239131627088,427.4206515580429
12.049660071761778,-52.280403888972884,13.044902744548494
-3.071404934769564,13.034034734027117,44.268246157672976
10.932723736998716,-44.32598759336119,64.21283636224148
-22.482894126145446,-11.682452387625812,-155.6927905517852
38.51201432193692,17.159232195825457,118.16864165193628
16.335833135046656,-2.5977012503345214,75.21802790520803
-0.3791789301307429,4.918894590274914,82.94953952210827
3.4380438405960763,-22.54861765151421,54.17847276350899
7.584508489675349,-21.92415024075086,-186.17593009450923
16.088596764635742,9.859952977450687,201.53066437773634
-11.555045676976754,21.0048097470877,207.69953733844153
13.448608717391348,24.546636308859426,568.6268955317221
5.014287960809188,-31.8982017094072,173.99234386192325
1.8144871365170596,17.96307268319864,127.85001084970958
-2.755453065462861,5.915896252799939,-120.53895723170689
25.846056841649485,-31.914177646692824,74.4138049160952
-18.873376980607187,-15.034191206564788,-25.886784112486808
-10.657272694288322,-8.264251359756328,415.98188125373497
33.44738153241815,-3.2216161660219083,2.6813605308808235
11.632582881091283,-5.828655583535679,8.020836688672773
-30.94670491748937,21.755998438788417,180.46207033831564
-6.3529426199716355,-20.669528651034057,-2.8160086684049546
7.199581866265317,11.99507135767524,154.5627178198717
-4.207419330983033,-14.282841608526883,148.36687342932476
4.125699578270829,-6.735274373920238,41.76475733147103
-5.6117717743004345,10.87236984571157,614.8086614585659
-32.37730932424376,-47.78514367539153,17.74193671844982
-10.527693665513487,3.6647889266234115,-399.83845065584455
-28.337469554854277,18.5738309114089,38.904704509534156
4.989784560437825,-21.97653411168141,340.25911342663903
1.8930954568164127,6.105739654416537,47.187145173486265
1.5474461766607375,-2.4735718604580543,229.0195735589785
9.115226538476879,-0.503922277129877,413.6500635688428
15.645690972830689,32.402329438700924,374.5582830401657
-15.257800084977983,-10.056842168537486,91.69877914077384
11.138948477053194,-20.406696843962546,137.30968301034594
-41.39218901756734,-2.3007039072660516,275.3189915890604
38.91808712465157,-7.306579505436437,-412.39781809127226
-4.723468613726966,23.23310502153991,-15.92218960669436
10.606835140646162,0.00757162612369713,254.8973783347897
-13.77433515650658,-42.9016539387556,29.047375323084204
-5.064321478487242,-5.218856687916691,42.45982257399859
15.909380504374893,18.91837308464391,-173.2374186932344
6.15010315257435,-5.062572345635718,178.65482672356842
16.20311909324914,-35.27134995470766,125.56811636520014
10.931025050955434,-27.862946413594933,7.013688808528158
-11.022628200204895,-16.27743059110879,308.5546177893288
3.5442806039984145,-16.773595971331503,-130.86772141393212
-10.353221613242123,-28.331971678248745,-8.713427200187354
-3.402264854812267,29.065622431249906,-95.26753093829859
-21.527507425303828,7.4937717775183526,216.03472297585537
5.84790193079908,40.33701209728652,79.91816162245631
-46.11529361547434,28.764200086429447,-65.24356008044509
-5.108311858338391,-18.29242453336797,41.13561668737163
-14.473396790788222,-21.32789304760099,117.27649706866372
11.207967808626062,8.153102007916413,-111.48571702319609
-7.91345918786723,-2.2021223588222187,112.96945755758205
13.84451049511106,8.37328475043202,-47.95650324618131
-3.8039034864736996,0.7477262132412563,213.3650521982365
-19.114499857789326,-39.108990085630715,-352.0113302124326
11.524080562165796,-36.358751062458566,-52.25093599565682
1.2420049975447371,4.968255976225903,157.3468406749788
51.64439445186432,25.720948004430984,188.17945806628222
0.7995248351211142,21.756084928640924,-140.71839313813277
20.59782643076749,-2.8957452536719326,53.76344983323409
25.769167674204454,15.815038794692134,51.43543976540973
32.63987520882974,-14.468700117883277,-185.01462681635422
21.99562834958085,12.47594327391922,56.35448828456051
-10.46340144645452,-22.041641210321863,136.5942868803382
-10.30265953513647,11.378245429702794,271.7490360713862
1.4459765410401249,14.781646740523374,-270.8408950401362
14.075096791894898,4.522589135173433,164.07780553038486
-33.456454234487715,-15.164341602827838,67.21208504918786
-4.484887913184487,-8.210751022369044,272.8087434314523
5.736621382071392,-9.346672310766218,48.36358481501484
-47.10839586612146,-29.256548611100946,482.81085576087133
32.967981938984956,19.637820581103604,-185.55338071853322
1.1828563496923794,-10.855677494226581,220.38551523587157
-28.079543556202417,-14.8018288522935,117.81899904616773
-39.16387594363772,11.463585478427875,190.90884408694978
20.171895475601254,12.77783415708571,-132.21874770368075
18.53777655503006,-12.207698054833466,158.68500109543658
12.012157666359741,4.413178623403142,317.34684034337346
19.726575983746265,-16.002163365373168,225.17762459513884
0.35639798781880166,25.533033159392296,132.82434705559888
8.160580729440582,31.800247189584276,-201.91620190042565
0.8429870623696033,-33.154936507960464,199.66611609758633
-5.574269471166215,-1.4901639646284404,202.7388147376383
49.83892626427358,7.761694513781872,295.51169620811686
-14.432079496685757,-38.866864109934895,86.64856245561793
-7.889836808201627,27.190757065583565,148.67836052267563
25.917999734303095,-6.423562518168845,-66.01385044438726
-1.251889916344221,-20.235147295839127,281.8052776169306
41.2533829062204,10.665110684094046,211.91798620772627
-0.30567642134259415,22.195224957570773,-233.89036216755653
9.475386261279501,7.665766030717087,60.99599018318851
10.357823855252741,1.8856964662418831,-156.98997646298128
8.870502220585436,-10.257908410563912,238.31545437275457
-28.383317533508993,-12.851346695879338,-81.49143957056174
1.3215050350994082,-3.0622708952284645,-23.08596297234351
-3.8531344656712747,-13.25824111614168,-81.05357520924855
-0.9779218992331686,11.076470058975685,247.2064356190084
-33.50629447797098,-1.906133051675958,-299.7283276877083
-28.18853782582845,-7.861691558971302,-154.96989208158033
19.744331244643952,-6.19457863186655,2.030164440214385
-13.383705307202678,-10.905418489668318,149.04689888780953
8.644785465384102,26.354373748617302,-38.48848123142329
-14.661545639562439,-17.419633055363906,293.45542665345226
-6.275366520414978,-21.323378371499793,377.41687235653256
-8.144133888110506,15.629250106720162,32.53938774449197
-43.70200239839033,2.2079913069744985,-155.63154144818353
18.57732435621209,4.301760675537974,-24.395625075333243
-23.45772551028839,-1.5036810157299665,99.54537717469304
-18.722117340898944,-6.558545533797696,0.8496004477542201
-32.83791051640294,19.933815201085853,-34.61070403592181
30.57139576228333,-30.17437387441614,10.199595411505229
-22.769120884167265,-19.975890611331415,29.38739858154692
36.66185189228027,17.93970811528081,155.5296726258668
30.19653215915417,-11.109239720877486,37.106794290284384
-19.732481685142407,-4.14466950687646,304.0091797065936
-32.26210280017842,-35.19967806698567,129.4172849262838
14.4582741281401,14.613989169340131,-82.59997579247599
6.569444209804064,-5.049512108325822,-149.06128424432626
3.4958087917318807,-22.5963379710935,232.2825808755358
15.025934468211904,8.995467440986591,74.79783842355967
-1.6789802519214205,-7.863501086041595,-4.560225947224026
-44.69097175300563,17.91845452648548,188.69666019721146
-15.389877915292926,-12.545509052193793,235.1862491772375
12.158120340994065,-10.186180337240756,13.277711741623492
-17.293846609604508,-25.364904751244048,154.82682682434637
5.467676045882689,24.37413585075928,-114.62490225241143
-15.209639083679274,-8.645659475258512,323.9969046344005
18.17660490611921,3.5889300218561155,-291.5416412462697
-0.11678075291364291,17.52654485423271,-37.97674661107328
15.272929443191355,40.33921827008899,-89.64353134941928
2.1721133114450213,23.658200640014556,-135.55991237515022
-11.501546445917828,40.13770576794176,-259.29415237519396
12.439396981103943,40.09818330795957,56.12193821734652
46.923575284299375,1.7768934791664128,84.13776191532088
24.620963480331895,2.1506725971754674,251.6532128821486
22.02872383774978,9.13248844771754,159.07378609344204
3.3880930622994896,12.062982065433003,84.89378823402188
6.196976630140649,-8.47670010052065,174.42820685047838
-5.469052852580817,-16.87876127934794,576.4590219614761
23.459010614294513,43.778540071989696,217.76897270167115
15.927599284772015,-7.627160763544315,193.2949549236878
1.7310670426774644,-4.985618339356859,-241.06242245351308
-0.22298366835176808,-23.908697744880932,-42.98280451666831
-6.128195904608082,-12.734611151984819,198.45170014473752
-6.6370657859007,17.63430890084972,143.1776150529484
7.614520685165945,-16.37356962898844,104.07238587115785
14.117568089720914,14.506889790668696,-376.6155027342543
-7.55515213180599,0.5620080736886184,-27.083301916588013
-38.835268361003344,-21.63087621102889,277.54338701083714
-12.168885657308351,1.5852044305081754,268.8321860052233
1.0023946871900362,-30.096461500102443,-146.27978938942945
-10.539526627286557,3.7727223558708047,-153.29477099264489
18.79908375454536,-28.749686238459418,-431.96913734822215
5.722772573586033,-47.55799458767167,124.95712845052525
39.53590331066201,2.7802048295788273,-355.19242251530267
-6.2825821006368905,30.24446902004739,74.6956935332715
36.20087443606863,-15.048450775737107,18.855316389882717
-1.117636448251151,-37.03423342801985,-88.40869181988552
-3.80650524580715,-15.287313129073771,136.39710182054796
8.526942052009817,9.884267572283305,253.15821984635642
10.341199029045159,-3.0612920520922366,67.67676904342233
-8.700327275509904,-13.425033152310771,-384.8498058525837
14.379272810717346,5.75773117752569,-143.92482798893124
-21.03072739981161,-34.967888438024744,220.32103952284962
2.091416669478177,2.6696002800487446,52.0006539891897
-6.065973613658773,23.043249743682388,145.01833009758744
13.722870067226264,46.928205189118486,209.4455706460265
5.900383856255945,19.541988811644877,76.10769334591885
29.205778135707106,-0.07359828668796851,275.8568811336171
-14.683169113648775,-26.318154146588164,-121.55694536854915
-16.04283118601732,3.592095325036466,151.8849977577213
-8.426585770162639,8.76120547085867,-77.75563675566568
34.16871456260493,-11.786089518799987,-70.01503485043857
17.280185602102218,-7.552914160994062,0.7286059978205444
2.8022700235439464,-8.919630211438731,-3.1227441018923585
7.649935086816559,0.7150704116389511,14.422716807070756
-0.6263354500512125,10.163178824856825,-33.12059382113682
-7.764377788655647,5.4118709701653405,518.287836354426
-8.74066161064238,7.769729635185737,79.06414247963122
22.410544928307267,-45.82796348673443,243.25304756234482
-6.449526222243129,16.449497247163208,-246.60873133063507
8.489267949893952,-4.952385988383909,-48.448026942540366
8.325788951625913,-11.897366404583982,338.32966290418784
-14.935861156385597,-28.059072801876603,203.49682684553525
-32.48445820414379,-2.6283512102315107,438.7819660557538
27.311823629745852,-45.73283062435715,215.4402328419973
-1.5440141316482001,18.164204755490335,171.52238676681895
-45.50962634569256,-3.626757231303604,-189.1223115917055
16.074087718823925,-11.893346760753898,195.27280220440585
24.371835119360824,-35.76418550244293,-3.064520705133887
-0.10622553720781111,-5.316838286395731,220.34082336436768
-20.706578610843913,37.74488610058437,165.7088812709009
-21.243094696472443,-20.992164660826738,45.21256803089778
65.77439187275671,-22.410039568091456,347.17353808216205
33.57304850481549,-3.9273551916669542,51.458612797305854
