4.979754405058587,-16.035297667834435,0.2836082382627524
-6.528265935368678,-107.48085359341701,0.19423881995358963
6.271727071440357,398.6219203807806,0.14265883110601174
3.6748347575697156,116.64325559482174,0.25397468069737195
3.499500739276259,184.28894859293382,0.1774645331435703
-5.588342382413018,4.1105441311993545,0.12134452720708376
-1.775283630812278,-34.53208495523028,0.24396297905927
-23.752286473550868,-233.50989531699435,0.10005770703572398
16.318446763628632,-153.5656728136695,0.17007688098007714
13.159837452880314,656.8368877126301,0.20584979924194025
-22.37979165587405,-349.1207180615149,0.24660607192132625
-33.32748727891585,-28.034524852475617,0.23178875501599053
-0.8139252405362893,-153.10739448531692,0.22166825936504295
0.10069858590635411,364.2482326068631,0.2679499780304694
3.713088136393985,197.97872820090788,0.1569808136365935
16.21624045280709,236.43152552393718,0.23594002562890556
10.927715854348893,-90.18498186396812,0.17406091848332605
24.236019791043148,-237.17329383958753,0.2295415828011012
-39.45657476126568,279.10894122240825,0.17997470107397
-8.30645833768078,-704.6981895317293,0.23273253735729466
-6.790781685786904,124.61339315651291,0.10960018164905684
38.501736453017934,100.52327364639896,0.2374663803367925
8.37951321691166,53.306073773654376,0.23119969168026755
37.21635993147527,87.79355911027855,0.08006429661105313
42.678083491194144,-32.65145892706177,0.20849540034340366
-47.70616848263684,365.7081950261369,0.2145386329542679
6.622678585329568,-103.25313353502436,0.18578934604462724
9.591604310044637,-258.96635419685634,0.2555108878961184
4.626188944335786,-281.60617820369424,0.17974559153785258
-39.820138009543854,121.32869980112255,0.18938716120781646
18.168441238951875,122.659899735666,0.17163923205835982
-16.33531075478984,-31.670240986791498,0.17392838021670654
-3.666621429428139,263.17131467414265,0.1877012353438735
-3.8336070364714736,-79.71624696279898,0.21394003979194215
-9.745313473967009,-113.5876824924962,0.14201044480239844
4.5219737087436425,68.31673970830106,0.12495981620453712
-3.220014403348102,-203.61828955410837,0.16070920507032788
-18.912626964586366,-32.356476111558514,0.25044798196305407
4.70285814430414,167.0259122210296,0.14082079389520902
-37.91950145440885,304.2320196130648,0.23248859483588227
22.43676778613335,44.9267343958751,0.18061679650337648
3.393378878498873,81.81452108382341,0.15996993620574496
11.3558393489588,223.7004106079837,0.14232333851401827
8.121930164385674,182.43284559583984,0.1772234227127185
-3.8410169101021414,-201.53167200635255,0.16083964671804604
22.567361461007863,98.32566032540878,0.2759457495007136
15.177865265605309,19.844737371430238,0.17433713973392428
15.605730876522028,62.80791475765778,0.18132150831271499
-15.63356293215524,-14.812688310870092,0.16714506405035642
-13.16305630729033,-390.5134828351907,0.22583387456199078
-10.039738997519645,-88.10835866551454,0.2800807093396282
-24.92564090667944,-49.72498324295066,0.23393541933343498
20.9863835128154,110.56062326222357,0.2630851623974892
10.371379711493308,-164.76304979769404,0.19108541035968904
13.422266566192933,182.38387991712816,0.2953394574904176
-8.02513456869115,234.11792609757512,0.35341872198300883
-37.791037841553674,151.19910445583565,0.2616986278436217
-47.52801030426439,18.442425862005397,0.16365200813568892
16.382368891361192,8.497467094748036,0.22091548666143382
28.858546538341567,-13.571924089789778,0.21716028064666554
-24.969148576037554,338.49286198957833,0.2548935133493304
24.637559089164384,145.5666083510922,0.1617873996709088
16.425231401340284,252.61378233384116,0.1173561493069118
-68.11882093490172,142.31194801271016,0.16827767873165636
14.595296277387519,-28.899703420270317,0.21007293634493393
0.09008668169239926,199.7184577901142,0.16665868624996463
18.429106124127795,93.67961137306952,0.18229903719356336
-28.538209099764465,-81.85086644483552,0.2222423598367359
14.697885724756219,-496.56313716688965,0.2248453050961328
-19.065891418081378,226.25163591184432,0.07449074750832799
-8.244681858478927,149.46684570861973,0.21298982963324425
-11.256833934596873,-74.4509003472315,0.21723159958913457
-1.6698379688763074,-170.99602176527728,0.24214281148708183
4.182914936481384,-8.667636627640787,0.18856336295002218
1.1305017917148135,-110.6775635933088,0.22342874030200194
-15.17494263050936,-262.40061602869116,0.15665845282589624
-11.804841931330577,-60.461716071161185,0.13426635394563796
15.50323488335771,111.80969255744743,0.21766751952766974
16.032053880909306,-71.8354472682543,0.11475900349635161
-7.0195209607521285,-3.268986257565721,0.21610949095826676
-11.812379699526465,100.19209955023878,0.19229469564937257
-12.751928669301336,-25.18819496604464,0.218144876004434
-8.06927010697909,88.1575534148601,0.2046076094519449
-6.675232792232107,-96.91109438830966,0.1554547742695498
-15.505862175859624,-97.46855310393764,0.1716053552465367
-25.807776514676096,-266.9189237421532,0.12644861362818222
-4.522730190331673,224.73357495609844,0.2606440267907863
9.68432875112966,-419.108517443424,0.18837034229327665
2.0834866162807497,-93.32513147893764,0.16392204216959488
-30.332017148704303,-41.57086307987316,0.14586801291997958
-4.800767600029762,-374.66261477970266,0.18025444002210517
17.86526629933077,338.9567192881816,0.22642803219427574
-7.824651357458475,94.60447821849873,0.21459029429732557
25.794515121272134,-110.04441135647545,0.12909816633682186
15.921880471859565,-229.1226659974558,0.18362572089490803
-8.72182585915644,182.96312727248738,0.15067579578406773
4.56834864330398,7.342954689622083,0.2552528910769446
13.168036804706201,214.520916351782,0.1950424347173765
-4.38067716482529,45.45738397106645,0.1188625324336595
-13.361519747253926,136.1764429501967,0.22133788710074712
38.60120926484688,204.72990928090363,0.2728544628713676
-15.567932465285846,-387.80613818604553,0.15513224487765773
28.366792561527507,-39.9607178068444,0.12921359122813736
-17.80342179026202,-270.019716811622,0.2873720195598206
44.106695166444965,29.840487296110286,0.19302547359890088
-12.841606451693304,160.01917328837183,0.13360013927338205
-29.264583857115397,285.2391789523249,0.262316735141816
-8.59277833493411,-43.889521894848464,0.17336640184980612
-1.43653429877604,180.40792443477258,0.18089671675082392
4.507921538607141,-192.58546631626666,0.1315528676035006
20.63896507651135,-152.2105297156958,0.18933624974721028
44.08041708128424,-131.50336468288438,0.1848106945521365
-0.8968712591732381,-82.04621256843137,0.23827728149966193
-21.517931550680448,105.55527870915671,0.12481187528238952
11.494997386397872,-10.044442901953454,0.20810381088663593
2.0436358242607966,-419.1109181949419,0.20647131600776958
45.434504066915935,-62.26874316066713,0.20228771182149355
12.364175736233435,-77.00149339347023,0.20891827614706443
-17.7866680793396,-79.55348680182301,0.19134789424801288
-15.233965398013149,356.1252584866614,0.16348289414294984
-17.131016048562092,-191.73600197946482,0.17566329657250787
-14.073573098930058,-61.34604188148164,0.17902515637307412
3.3033873937880767,-287.5608587805595,0.19455937332716094
-40.72187384473183,-149.43101861242945,0.07034114373700603
-6.729136752815727,107.21960343245851,0.1445289822433144
-11.945540529385745,-240.24034116019087,0.228175035743708
9.816546659034708,-307.68636835063364,0.21496311395977996
36.76690974205938,336.01553515587045,0.1637873436819542
-7.862206669028744,-41.258646838881006,0.22558180899211316
-2.3337256217611713,-137.0659426853387,0.23141238202396716
16.79900047508253,78.38367136997596,0.15309321278130256
-24.492381569585405,21.94374511591729,0.20609721026328387
21.301753422470465,365.4439635920347,0.19309622817584876
-28.91224386748891,60.42501966039261,0.15563641085478536
-9.216913377363468,-177.18986076482173,0.21599755859951938
-25.362018742146763,383.3707859114766,0.12824561691478964
-30.38394650825009,13.764017788641814,0.1738023655675016
-37.445311515456964,-45.9674742907327,0.1650061218926401
-19.2936008501263,303.6391283957772,0.14051905877409196
-4.158390985512747,-34.1025301206241,0.1669639290262099
-43.94335858358963,200.52363871383793,0.14105018818369905
8.285842884954183,63.340502634151164,0.15735662448263288
23.22002229124806,42.68626586623603,0.16423372290806562
-8.879392334091875,138.86425577869545,0.20179863063645012
21.384199386102722,-258.5710658418674,0.2359761300125356
8.284743987086413,408.5628465861558,0.2819796547042346
-16.62172172954298,-100.98880587699186,0.20457293007954674
17.312661413224973,-196.7308367115891,0.3144528739675264
-30.320526910593394,419.4416707716196,0.15518428781909788
-3.611380455408702,219.15896246864543,0.13204389698428098
-0.3130398186243552,-63.35040783009644,0.14894561321477212
28.562041230029717,72.06072419358784,0.1577867736581085
-23.740195105550242,141.98695322187308,0.31495499377622027
-4.396360580240442,-91.10508636048968,0.1865919940413447
-6.183680009972471,191.1915522608522,0.18844134286310482
13.277459224874669,109.78809685241006,0.161189461335533
15.16236903161527,106.81384948060557,0.19936239412262072
2.57660221704499,71.39284854125799,0.12041256684594424
27.433560629631856,-236.1644769039228,0.08912353104451387
-1.8204103000380218,-134.5930351548274,0.2308945140010434
10.003859593605245,-119.8629910804659,0.20848056619229133
41.70128026983099,290.20164794596013,0.2066014376170181
24.019221117918402,-175.38538888663766,0.09799315571443985
10.390150096389645,402.54347122723243,0.1495740248976059
23.85443407961585,5.0324866024087,0.20939698870495216
7.726655500411511,-185.5126881014669,0.2518959481344404
-3.6929456141845067,-291.13647644952806,0.20110742925486494
11.632756533823464,176.05054464176712,0.23265253930432475
27.865392687776207,6.915350882701661,0.1433508043270433
3.9171209434891714,9.59254181970704,0.2093495861871014
-11.41166162099066,-440.86866427500917,0.18471494073239517
10.702940935157365,353.1054980831459,0.25630181657689616
-17.885391193863494,-177.14565410489925,0.1751875540228967
8.610040409086551,-427.0855040388208,0.22610764581721737
-6.998703047506929,-2.589201683158922,0.20288202350691825
17.104001596963585,45.677187735906465,0.1262038645660402
-6.963879922692751,13.45221653397152,0.19826886251927445
-8.776617250199882,-322.46896212502753,0.1313716959598385
-6.403406107126706,-34.53449372545831,0.23502960148099505
12.085979203128186,-102.13625832507694,0.14649140119956647
-19.46578350187758,216.71725335725114,0.19517657801766988
-3.1816785775759655,-282.21998167853246,0.2756414996989316
-4.900568158058659,-191.88811432028555,0.1482118080383158
19.162835331821213,-76.384198140841,0.19883622781626148
6.150683007040857,26.96583326486857,0.2495707221231627
16.858873320324527,-6.629271357725138,0.21001972118355258
-3.123933265374508,117.4732361671744,0.13908503481699258
6.614959893955712,-117.77818802445552,0.24288741268725406
23.021930071922093,185.17978036587868,0.20182679502967502
-20.979382277151682,126.74819301121288,0.17473624415177655
-7.13048247979819,314.89997280121764,0.2584156700716415
9.113968934191107,136.96711915001057,0.26948675412108125
13.804273542137288,-330.94096107688927,0.26476052289745805
-45.168681217541334,17.270177799572963,0.22165933035332686
3.4569899897119063,-270.4182353821323,0.21703383181806557
9.33304549436089,24.816022960840662,0.19983543023219966
-15.586636121784998,-76.44509182872993,0.26210696605049505
18.559006389259515,-117.87207414942604,0.20883459825317613
-13.131879393573456,284.625766341031,0.24765732493986453
-2.9262230745864155,84.44448815822544,0.19088200013070344
23.209300806972607,-138.5131747350966,0.27504879707339147
-26.471708692638995,57.194934616676804,0.18109399498447054
11.877944340093407,-16.094700344370754,0.1514084948046964
-5.608458408458209,-217.62156186276792,0.25946913516726583
23.007351999117134,-64.86092372001472,0.14829243087748128
-0.6373285433142843,-167.102684920664,0.21416393194152594
35.12955796632154,-62.775502932933314,0.2710843009009067
4.500092185526867,126.44062943748071,0.17659340803962675
-23.53875422146951,-56.146716719896276,0.1619334234719924
13.04930468358641,91.53771038301714,0.23138371963282006
-1.6925432411101675,-108.8646771665886,0.03114491613936088
-2.1479355620021385,134.12342674266048,0.1998609749756388
4.539698987157888,134.06644587523502,0.17381199702982045
-12.36431712190489,-300.45854356944926,0.15794285879270586
-9.792668463760819,-52.77055499160609,0.29006658062213253
38.43889596185274,464.8644099898546,0.22757104559567803
7.3319936466146975,-77.23262477805277,0.25632171003755044
3.959226598891368,111.93470889424937,0.2815446304600839
-9.610962102652499,-236.29439258073188,0.2311659977159708
7.384666176263405,329.33218657235614,0.2500628471950187
-12.307728398509042,192.29756376123305,0.2604016305221597
-20.910421622579626,100.4702006325762,0.10561124396913696
-0.6106257644251433,-298.41570202090975,0.21076049683943848
-14.551885943129015,-55.31483131847147,0.15088443361891185
7.576212905709708,238.00222209333856,0.128587906830663
-2.286845088711824,-264.8622005620911,0.21142699905667203
40.24223780112193,536.3111010451992,0.16648216594441084
-28.950044686314513,114.22970615268102,0.19036179487909372
-35.010211548289995,158.73066724652415,0.2762616885324519
17.05194743700218,-91.57439185565963,0.14665168700996756
-1.5424360830331074,-477.14716272796795,0.15779137263008283
-0.14094309976167824,185.69491110243638,0.21200716797560584
-9.816342040115448,-17.837251900657193,0.18639850655399284
1.315069317963053,-109.14681056030773,0.2325216956121042
-12.453069387909036,-108.59989149870297,0.18517439430760727
7.497475433760078,114.17851468129876,0.26228317684510155
-8.38134627827953,-227.8258776051721,0.1998590321449389
20.437727793056514,136.7835875491056,0.23374418964489138
-18.396520596620388,-245.05717598287745,0.1765715306084039
11.200275611599185,107.86817495100378,0.2149460534737148
8.957221867313592,7.944255684972205,0.12359808199641326
15.382780945808863,-152.34836505929806,0.17095806535321023
-9.062448355834547,-242.3893474024289,0.23405813324045438
-33.597018697003676,150.68145973147688,0.22430716924681243
15.64457198611433,337.4603479161343,0.17605471507614584
18.568517569395887,-127.17790681310485,0.12300680830158485
-1.5799516208072748,28.249420127509023,0.15966512629526614
23.24676959607231,297.97187407996046,0.13097107831044674
9.074842150406276,96.82596106837322,0.16471183402719095
9.629115491705035,-12.229246482924683,0.1551796420930063
-24.237673026462453,218.9638620308465,0.2580363268270441
-4.702019988106535,-95.63730709606685,0.15094437607934075
30.842257118521495,-5.922242550416409,0.1585225731940977
2.8824615612513464,33.10670766837981,0.13540118494107334
21.100547315007596,-110.39829424073777,0.15394294617961407
-1.89743592232245,-208.1220430351408,0.23215488634963372
-3.7558441652506342,137.9579530279113,0.21273120084832972
51.37362885229372,380.1959183618505,0.28979149719241537
-18.83135667030792,22.0620019608687,0.23054319594012984
29.073672367169635,-204.04549751554413,0.27320409094258646
-2.5667744459511104,-276.68446034607877,0.2728504071251711
20.324402130925712,-198.1013517160588,0.2802544617898224
53.050890863720674,-122.45720581568742,0.17958024896415095
10.897479701276158,-312.02149388200996,0.21527693091847777
-8.522214383973754,319.5985128772862,0.3002407687198604
-30.25107350421743,57.7863648211314,0.16279159665228288
4.918486863355169,-228.1223060500394,0.19531429292318372
1.9938224036873544,-201.6370020439688,0.20270987144750527
3.5911193991762906,-299.7587341435484,0.22402445628408693
16.619235977042123,162.82788998606836,0.2266613063439567
12.86619128711285,2.7803822856761284,0.22393852169119577
5.5937658004219735,214.93627474686204,0.19709263495417373
1.6478090844254059,295.7670060997647,0.19284179140731944
-4.448298295758944,104.96257570966851,0.2000659390408578
33.63642091204278,-263.2673148206853,0.20860462167158111
19.220544441939765,42.90812721033502,0.17122149043627513
24.95607891509057,229.25774048224417,0.2126515123486906
13.159534179629716,76.0621621130229,0.24733704543767654
11.047150046148753,-28.10302247764919,0.22367142348410157
10.76850664372532,100.15089491906626,0.25052655560242454
-43.405522895909144,155.469866680585,0.31230717550474035
-11.783085123923406,29.252098866915887,0.23803216455188794
-8.306931487635595,-44.68506827031914,0.18276308285246154
27.384909387814314,-78.90096843242675,0.27781650329561136
-33.180817192717306,-23.286501788247488,0.2185620374588056
-13.255815887633718,163.39012093689823,0.22970312915415897
-14.538354338506501,-341.3685018584164,0.16511457593358167
14.009371770214996,-172.10344439011376,0.14289249527251704
-6.808749645652305,-134.17266753940248,0.17767741634756198
-23.154564557212144,-3.4681591127570055,0.20850411238132047
-13.779313945048328,-133.7173392448768,0.10952042737364404
-14.834143891826741,-151.48317488578937,0.22391501340029732
-15.282711117905524,-164.0696599373557,0.13916423141004441
-25.991310388907433,-2.954125709606841,0.1751130073758394
23.27591302276722,67.67515927073148,0.269152068189882
12.235352676401472,-45.91888000084797,0.16404148934648152
-10.304817679142895,-263.8343873450759,0.19851599706192177
3.13780415300005,126.17799055843311,0.14638420065771807
20.183576655831562,-183.7299990121264,0.2808356240514177
-24.86553096317532,-216.78331049486843,0.2957079500847284
-19.76063140980042,302.2731664041278,0.32092064000044473
1.9576995674099922,13.565432737463654,0.252486468003256
-1.1291518888630778,-151.87181891143763,0.19563467103682175
17.465413599704522,12.006651370346571,0.23601491837036817
-12.869743668093296,107.39806352334857,0.2677479482391123
24.14634741814316,-5.632316606150285,0.15674627972719649
19.735446874430853,-63.72692984527452,0.1497542789916628
19.325830933320137,135.32868720365641,0.1779742694688509
-27.966421695186877,-283.8573258984481,0.1908116460213036
11.986652695056195,152.23243844604977,0.1688804827002314
-12.881656367888974,-190.8042060092984,0.22705593866917073
-18.6660890900805,152.2657135233796,0.2690819616365373
30.48070445438503,16.57355215129261,0.22841876681368634
8.81496026343357,-12.238519724058838,0.17172423262279535
-9.494666304562084,143.13912519076806,0.1991781053594755
-28.806913460215654,69.50594341065175,0.1924618944609153
16.33448885283822,44.467202037638316,0.2378428618737362
1.255472755292372,202.85121511516942,0.14380396798990416
-13.210619885382318,243.00413847933444,0.20186259607208842
15.440024174708357,168.18657952512433,0.24254062583054198
-8.331283484806946,234.72829629925758,0.2986872082169583
26.13180833467643,334.6283248087649,0.23990613486891246
9.209112699412238,-240.65310959746466,0.2476679591237673
11.873354760847747,-740.2997020091749,0.1957878853061484
-7.48429838337945,-118.37507615533956,0.24788563803125865
-9.390654367848418,-230.30023536532914,0.1569645656237928
6.289310777572648,-114.07510437701256,0.14888390191065054
-1.900107655645482,327.3156683105567,0.12659486499214473
19.68171961863019,79.72636227170081,0.20215763663932965
-0.18268621566254956,-86.74016530313168,0.17492999314552896
0.45203990984455633,-132.21726524891912,0.1462607989302796
28.738546685782715,201.28231413941475,0.19639155824428312
8.457562463451133,-193.33277662051842,0.1988892158513761
-24.784514982929156,-218.0589517479436,0.1945908085827809
-4.156722730359649,99.85624255580008,0.14104982030746457
-48.06487666334512,213.02185247585484,0.19553277292751303
7.985145197323009,22.85300884146122,0.22043773427124194
-3.1802337318752008,-189.63522795227877,0.26504572860863646
-0.9718231336353066,-192.6475178442345,0.2054184850853276
14.801202000433953,38.79103042249036,0.30357506341045215
-26.72065863643816,363.49064032643776,0.2277701543017602
32.925912755818544,-101.53033338025723,0.2453342400686334
-33.82198039831752,-151.4480171568841,0.1911978028291862
8.75725837314927,-257.9453766577507,0.1367633264957982
12.198816882556503,-229.42091797831327,0.17483700839757207
5.918688725611002,-62.625763390931155,0.260062636436174
-4.10025622770293,-341.73780652123594,0.2036016421838801
-16.768405023223703,218.31756079038817,0.18211619176352845
21.82242527595306,11.781013611159768,0.19842032112344674
5.395943894790991,-72.68335857865262,0.1853794354841572
31.962177127229097,84.34959691993718,0.19610354088992452
-3.796126299218319,-415.19600175917066,0.255923100837239
-13.694854542019193,-79.82449001556716,0.20971473188225975
21.861395203664653,-319.3445629770698,0.2807298503290947
2.451361958026556,-79.26292871048886,0.16208261796808954
1.5610944874772723,-209.94027988190345,0.2607598882713389
-2.5438619898535837,-93.26975960848883,0.1760958653061865
-10.085699074944465,-276.6006567582693,0.22096983019491376
-6.863259231743079,172.99473257412563,0.20786293633244982
21.893196996902446,-150.05869713898522,0.186032109959285
-29.718299211717266,-131.90863024421384,0.1843131434276033
-8.493631121158607,-116.1203344689939,0.19730037947486884
-6.079431142712776,87.4473387678964,0.2956187422614346
38.386285630253994,50.15226015708358,0.2579170388565002
17.246630778253472,487.917081577426,0.27282234604780164
-9.290043658756312,-279.11443880453464,0.13128981158654152
0.7992271546696748,-85.03590387946217,0.1966456603730436
21.81158910529968,-61.275585279965014,0.2461922918951522
1.921541478998241,0.9883735512439348,0.10819721995241995
-20.119569627467158,-106.08515043630793,0.17565532322576646
-24.72561263044673,-216.160541436375,0.22217916555096434
-3.8329223535465067,177.83054983989328,0.29495067431419497
20.277182200192808,154.88360703908504,0.12493547523553333
-2.363670503421697,-149.39886559585852,0.1735977818913292
-13.949418157287406,73.84618456095238,0.2553435988132539
3.3835103919375333,158.59437516088087,0.21428733845562795
-19.930040176001786,82.88731939315318,0.1337335632139305
7.620308217209249,-353.9843093751936,0.15249916522737036
15.25172285163829,30.21271220611869,0.22366685109005557
-33.29457576819437,-218.9418859211334,0.20903710344132403
-21.57284998958506,507.84836160722466,0.19845832854176346
10.537793817779146,175.97803515611935,0.21427298258182906
6.909753102595624,160.09018291978808,0.22701881202472832
29.95102308962778,17.072626134789385,0.17559248286270948
-36.1409796268873,45.266296632587675,0.24908215006284398
25.63220365194942,165.29116484107033,0.13471639975888736
35.58547216975662,-229.11636758941367,0.11370867930996398
25.24670314679743,-172.66692545019058,0.22920832814194497
14.158329144782547,90.03889811798429,0.33382081252416207
11.924672302659562,70.63440261635017,0.16942060079461865
-2.26300799665881,147.17621038203853,0.22641065111436284
3.8077862624500125,-236.03313348201712,0.11325153705873382
7.610025502884658,345.4995944184346,0.21415680259049838
9.338040630994564,61.54639955139164,0.16949082569983104
-16.66971160100263,181.0310502594866,0.2751890129843815
1.2113058778873367,-43.70934575115621,0.18824961851347363
4.943034096903993,-229.29078466124122,0.17150829078956922
49.38095878535208,114.52737926821399,0.16639962293458926
-11.345444238676555,115.83727697827145,0.24329736525086468
33.027621025913106,23.970803903728175,0.21146762459821852
1.6147343395498694,235.72317136080324,0.19467497066768846
8.584500926520622,86.78652345624516,0.197787451702211
30.390803191850114,-28.42449007496393,0.2574320979373886
-5.587020065210416,70.93956419167856,0.2681796995408671
-3.748341824698084,365.10585120765796,0.1952667783447805
-2.0811665689983325,-285.2617857423353,0.23126615842356382
-20.00653158994442,34.3184344604689,0.1780275799125605
4.278924285436339,114.43565077926594,0.23375299869538985
8.812357534946692,272.9512847314629,0.2769233303156837
19.857928413604448,199.39742872739046,0.24883516382523344
9.077692988169007,-247.23918995016763,0.19937731384632157
7.524808982872039,26.502504917402682,0.2095401871552155
-16.890107319602283,138.74002425663357,0.1707919784375778
-11.705113537522092,79.11436998499225,0.27175632329015564
-4.322450063121331,-341.49518935453693,0.14901144924249843
14.994195308166614,-129.81745645638213,0.19058739189392285
-33.39257952419049,200.52873855011802,0.2219327725151267
24.42724494976165,41.60004219224804,0.12324505172816365
-57.8057095749561,94.64426064711749,0.21930846291843126
-8.213224669509703,-273.76172445975374,0.19850790470681176
-17.382979280976574,120.41704415798573,0.21697062355637278
7.284625775687537,-168.3451110974477,0.23563476959430013
-29.302170090198633,-243.3632923234804,0.23675045352843702
3.3692345372726464,107.21095018247226,0.214796775630464
0.2778908982373869,258.82870431158034,0.24545561679388544
-9.326348536842064,-372.52841571708785,0.14555738883230554
15.361363182065508,-37.991131294609026,0.2877845347589421
-30.529997337957223,-255.08998098302067,0.22994039318684276
-18.22415828498224,-50.94606648455064,0.24206257273365575
27.554440731601126,215.8887416493481,0.14011545991689983
2.772598703995496,27.849465519487083,0.2342180499572235
-25.227846959755325,-282.1306111929012,0.2440217009206696
7.613709674974441,-129.08532102124718,0.1674671401900385
12.70585046382893,336.4519011646765,0.2662102724842315
53.95428969797263,155.96064799970065,0.24275553008063652
33.372006280556434,-98.59824636957228,0.14470479928690166
12.2807018540463,-470.7105151368525,0.2338839923315577
17.274145891170253,37.114218830553455,0.24143308687420112
9.493530902627063,89.22635633727351,0.12459906162632835
39.5395970296078,-48.91576868141648,0.29027719611076536
15.506759957251122,84.08953050444742,0.20782914691390345
2.117915481135768,208.99686002466552,0.13997276308295475
17.77863610176145,-311.15557748557455,0.2496600921748846
6.148786424566474,-871.3690321252145,0.16284179932903764
-7.196895742838532,-134.05455297187913,0.19636593927440976
19.552392392818618,-130.33992387008084,0.1775282992902405
33.31014993055257,-383.23087630008393,0.09830859673142758
-1.8224550443532375,232.82549674974692,0.2391057636020879
-18.44593610360726,-143.6020762345425,0.075361948115556
-5.198660144703226,-6.95250178662271,0.2557981439947049
-3.1317435270220404,192.77340035929805,0.13481939674582938
-22.88540253814819,51.63335527495166,0.24364425012028204
0.4760587890284835,-241.9837450571907,0.1921784528556662
23.83609156600235,-292.35672050418555,0.27818319477088754
24.502811149541046,-254.7952438485764,0.2835326858018481
23.061959338250112,40.3184833035432,0.13756528127488185
-22.889177776180762,232.03022124996932,0.24303302004512742
49.9372291845124,-1.424557236318282,0.16547051842613858
3.6116152478727215,95.69409265078534,0.21069117753378586
5.045980690192881,-142.87315426036844,0.2689430468269892
-3.7996827640388187,310.4427671369809,0.2055396606318578
-12.419982352064052,-369.8446953711141,0.21841448144995307
13.611857542775663,-59.1064824036412,0.15774147213062256
3.3819457370810353,-134.8830887949657,0.12174201307642984
-14.748990990238642,-10.535496858139263,0.17888957557939686
9.785262530130064,-123.83036411862417,0.19044600990463617
-22.84317104026526,172.0334279826542,0.25773418602773235
-24.890683641229842,-170.16208595788106,0.15397188591310845
-0.03068164287668819,123.81711162724184,0.16606130476399766
4.666655199757301,0.374181124742312,0.22962018990454033
9.600321792954631,-31.884233673019992,0.16964268159040785
-14.006146336200452,-217.45082108263193,0.1809799526865224
-5.1726487144853,-376.6735853254238,0.21266744771649013
1.2996356126071449,-97.23701747845132,0.21715424206662914
11.226696893515946,342.6682636750276,0.2378814784635601
13.896345607229325,278.7643956791919,0.18282678575162764
8.0602880783652,430.88265661082295,0.21628059341566216
-5.836189829890692,39.933189657885066,0.2179551716956481
-17.19203478405102,-18.64376031959998,0.14884974157413536
57.22658923269002,-93.48117205112575,0.1924775366525807
-0.6470504197772721,307.76805787049597,0.20705134780209394
12.28622752410742,-206.18748281302186,0.23042671295525313
-14.017995781775063,-214.14679645253378,0.15456250633256058
32.348537077340815,204.6136908368906,0.20730293096633146
-23.831182322298105,-387.005761064371,0.1974521790908181
-17.646057000817326,-226.48523114256287,0.1758801868380739
4.856148643004458,-241.8643974234505,0.15606036510829457
-10.622804083383182,37.439028717563104,0.1925665075865042
13.377169848173674,-240.67376252924237,0.21810624515113
11.410259073326172,-24.043776458243997,0.22684312079791372
3.183666570352186,-184.35488773463578,0.19909668717273488
7.402547027392721,183.90227644477253,0.28598499208463823
39.928280539307785,-197.78136328717446,0.27047211208427513
-6.043809670928816,0.7337910388439318,0.1608959477373117
27.461507330985345,44.183073271381545,0.2218111012744897
-39.510274662367706,-467.98614330999715,0.20661617203196367
23.550160428424544,150.37504638622283,0.2138430373610391
-22.9530875823906,-2.9090378096286837,0.1418264285452576
-21.14606816900997,-170.08954028362453,0.24241642327079782
-25.251254852037633,-131.0689222633792,0.18329284424786574
2.23836231234977,116.3590492568516,0.13313022809870562
-16.592856836760134,53.079810839958576,0.15572863997126063
-37.60803095893265,-105.81186245443637,0.2076181714908287
51.13690251898508,-85.04354544876743,0.13031525335453975
12.73779498457872,50.70786353477814,0.18546794799288102
15.692232127404441,-179.95916524216733,0.2400576609425219
16.058772575389327,79.12439953795823,0.28195814780623174
8.42866302415898,22.392613001960672,0.22014415770574686
15.901987292435729,435.05067884045144,0.234038523649243
14.875335862398453,-333.3083245291979,0.25909807509071436
-10.47445796478534,69.90268017289533,0.13214386578377518
-2.116901387627715,28.697896298296943,0.14773573124566644
3.962604813456037,-65.39633043638734,0.17950195428858506
27.461840729427365,-49.20687427732414,0.15078270970419796
8.885870320442764,239.2333362996546,0.2560608389100129
-17.27532819923492,-115.20179069514869,0.07209862331125061
30.372959120036768,-82.20815705355051,0.1960121408140934
-2.9369002408575913,-389.35856696373475,0.14027269599449851
8.412369480310565,-36.325070013963774,0.145795748107872
-8.703493428456525,-131.1629128764245,0.3024473858744221
16.50245956896503,-45.151881453477394,0.1762997438678965
-9.713464801050058,-141.82681608076194,0.21877569918199818
18.856145058250835,-130.70338440416248,0.2771422116132476
27.50823879668925,228.07241046679283,0.25725816588261846
-4.508300568595475,-15.217058709176262,0.09377754110804755
-9.149697530312448,-413.0220979664227,0.12113027736529135
-15.347026299272592,425.41387507976845,0.19309900139794478
-12.268547533252192,450.09872797446013,0.13096047522026766
17.21406664858405,-143.23953968560164,0.20911868723596763
-15.558787398276747,-1.703651661306129,0.22804921731492564
4.544023523198782,-216.66056991232284,0.2010374215061173
4.118219083465847,-419.8525999510515,0.2753677913253131
32.68709062110384,70.80718714290332,0.21428405597561945
-25.84247370603756,98.03140016864485,0.19080043348932163
21.86006252238264,-158.93553645826992,0.1858059927710065
-35.56734923410466,209.5104390810222,0.07737479786712172
-5.520964617320688,-49.58562704382828,0.21112059468152852
-12.977567133835793,42.34660953936493,0.18529732625139772
2.4356468442022896,-165.63414298658324,0.17464744892545936
-11.380518219284601,-101.24772382634544,0.19402755418249074
7.462560770669031,-308.2705462666215,0.14013943087973835
-51.49367397478753,-105.16040964849711,0.1425337680262373
23.74481403318098,-60.17943755956971,0.19272071051836334
-12.13690795689249,-238.20284574197083,0.23847931459168653
-35.74593839544799,207.90843276243004,0.23391517902434486
-24.892322852830063,-12.345473955277065,0.22535663417434335
-6.814197093638246,38.09694398792375,0.15174447730234022
28.44996539261679,146.3525648349017,0.21913965335715577
-14.783404227510728,-74.39841678223176,0.28220896280173985
4.224451364755773,132.6968139500272,0.23661006413283864
-30.773667186675887,179.36202411115121,0.14862339994295787
-22.886697537069608,-333.7179567835262,0.14296305497137576
-4.6202517144032536,-0.5998963669905546,0.18323760779679155
-11.209127361527429,21.112369525869617,0.2078964988684935
-11.659921563447709,42.582103721751196,0.2731420559328951
13.297233624354615,384.18676981500295,0.19092272043381203
17.841999063401197,80.17454870952427,0.259452329943057
0.5178351287725224,-121.6791805193798,0.19506669196881898
-9.925215195268812,-158.14033377711903,0.30685177667166086
-11.0476623425294,13.334156722835589,0.18476950092477437
5.738884372832901,-61.22940170506149,0.171115298009762
-30.51508137883487,75.06053300352093,0.13552477614080513
-12.096374971670343,556.0941288537036,0.168255737906202
-66.42321398162619,147.07519924100606,0.23017613240094223
-26.54943322917112,-75.96159744860981,0.16813936791656914
6.918527421569979,14.649709716406994,0.20451557377852084
-14.99424399715489,10.962165420186667,0.19555210612656587
-14.75400227667876,-390.48205581428687,0.19328297940685182
10.464054267655914,-324.9691330986859,0.2180063646706047
25.43306913975838,-165.67701130138488,0.1812079733774054
12.995970499694637,-55.03294278845586,0.1700651872778816
14.690738573296326,60.90776072515266,0.22213075931805876
1.545149806133988,371.24854945988886,0.2517551887307027
7.254662174881638,-258.78440894757534,0.1363696513079472
22.147496708072314,114.07850402746928,0.09305467726038288
0.10097835525077326,40.328076049148045,0.26540735564618545
-29.931229101412022,-129.5504572519071,0.2663373560596344
7.277821194104526,31.678026098806487,0.20072543886041394
34.409224125835884,116.85226266527067,0.1469864980227602
-4.3004699590343645,190.65153357336823,0.2187365594139086
3.6947770446606425,235.7252151720359,0.24757132049359737
2.801560461584236,52.26869727993806,0.23023489349877485
5.914071337477328,-49.337416231995135,0.22723479903729307
1.1885415734675067,-27.839062581517755,0.15862793011162912
-25.869676470111415,-57.36083066096634,0.1587376130830201
9.20688004404629,-36.06667755966512,0.23944666505239995
21.33711794593055,113.05660665900992,0.2029621277638137
-32.99286583262692,-369.25552978429084,0.18069555483048144
24.273622556341586,-231.09825075967635,0.15317837574314805
-11.41067088729965,90.2116554983,0.1699804072510307
5.569609488619523,20.50137145756375,0.18802791377766415
26.677055493443195,138.92892318787534,0.25752079464037736
31.784832207243237,248.0167445770042,0.23487332979759298
16.06487813960301,-121.02091324216988,0.16577921838083537
-12.17883991606066,-44.18463899562464,0.05129202389211687
1.160825571587397,-28.540903457602674,0.20306235863815905
-32.087977649478,148.5012787882733,0.26497581182032165
-7.575654067282377,-186.8783782258008,0.2406201687699849
-17.25737240663565,-170.59598694072648,0.2618749640496262
-16.71674036462306,-92.03714363201203,0.16537880736020305
36.7834128369151,-25.638383301499356,0.2758657072661393
-14.790417998991812,-89.77469412340739,0.20859603662786425
1.5118650460010832,-359.794782040937,0.21422962748311167
15.724852528045318,259.96017369447765,0.1718175831725626
-11.098064939319235,90.01662182276608,0.1719778748547201
10.744412651436106,292.6163925803666,0.24215913700581648
38.81077389843356,1.9276223848683975,0.18929663714328085
1.926272379082782,-67.10646934693203,0.12958871524668875
7.433040361309767,325.78073167436133,0.2192696949401633
7.0676554312839714,129.59972690543972,0.20499200300120216
-20.764020346503553,-66.2616092467283,0.17709977975887023
28.714984352773122,217.38351039287465,0.24532679141478927
11.462467815116748,-9.551002073997203,0.20515432267294625
-14.086900164458779,-2.412352500304036,0.13296537185195567
-0.9528788080131831,112.55274707846159,0.16723578040745468
-8.521379391561076,169.85513889854036,0.15413718040678193
7.369892952989776,-125.95040537430523,0.10487462289863825
-11.987667416041234,12.934159802314257,0.2329507819107963
-38.70298141863462,96.95558745893219,0.17219392051643653
0.9512608369334064,-177.9671039964676,0.15996993381775554
22.12932519022135,396.80178319366587,0.16673779232488378
12.109970279210518,42.529419631360454,0.17953693228774492
24.960061211328984,-101.4849948020175,0.20512226870397032
0.6834589035203352,-122.70215926550011,0.15225513314514635
-4.270008878496975,74.13177878887984,0.2648675905339163
21.134320551339833,283.5633936338165,0.14888882450415086
-36.00380360099451,-166.58064345645835,0.18053026640684347
-1.7523349523662457,190.64748288548068,0.2459490253185519
3.421819010125552,115.75878652575105,0.15399519105601503
-21.54835517393948,-79.29936004460228,0.16644374042553978
2.5374829636457847,-21.966645769657152,0.23653785384917553
3.98690496232961,-69.23171672999786,0.12118328064192514
-2.235586788348474,-72.88804157965676,0.15858719861285753
4.349228208094419,-238.50671102863132,0.25522568201548995
-13.978593550187941,-274.46156268291685,0.20639626898271218
-3.0268446697589453,-307.3218141462995,0.2449951542614735
21.82343904494924,-80.95760250372325,0.16864418263444372
22.09406844475079,-26.62785283788662,0.16191395851062007
17.85036647780833,-239.3674004121377,0.19536208166849914
-41.132541911835865,-45.67742713703489,0.0996435784670488
-19.492852129556205,-62.4576957981011,0.10071670436998623
-36.253601425953676,-181.82719715501366,0.2373089517595006
-23.063151105475107,190.93514290181517,0.20655770050765757
25.709690124166542,-13.645202527803177,0.2132669946023155
35.64429923301879,-93.62570286156888,0.21153522502502617
-3.314797922480652,-222.00526478677398,0.21471042509296212
-13.005789738729685,-161.73662979049598,0.19205226910882683
-44.20771589076527,95.05960174689561,0.19654415129537378
27.580618462179544,-133.40371461969238,0.18556612025806637
5.9565262531786125,352.05664948796425,0.11057578294606794
-22.986668433647537,16.671957902438034,0.07144423477080059
-5.559441390055926,-24.800005069823293,0.1772408081344165
-27.327061497208305,-123.79674421036952,0.18766013438674153
8.069661433168765,306.6662512008631,0.20514027263972853
-1.653195512334371,-129.12698082297487,0.15342981823552676
21.874192753895713,-119.94556177670349,0.23576296116182036
-29.584094375885932,-232.90475375028558,0.09546944261491452
6.344193249878975,29.282405418915214,0.2111049641712987
3.8292458008451193,-168.93172383917673,0.22958468892837708
-21.90178239073723,-240.74416885792579,0.17967803052676382
-13.876430203466539,-256.1586491968241,0.11436989502175617
-20.543979173371838,-2.250584315141856,0.16152259350676793
26.109628409670705,131.72083700558326,0.21136533707453967
8.972501244047699,-81.53856292414554,0.2206295306580479
0.5891675267145317,-265.4920579361903,0.19131963405864072
12.461534265708536,-238.457248231567,0.184534920495276
40.33477922795253,30.728499752035106,0.14949845094983288
8.59894860028476,-202.62021726441316,0.16494744236135644
2.0796667672473057,-308.06985367283437,0.2496644656020823
22.346442293194578,86.59089581221838,0.17499597635200168
-8.196256983341645,-240.9533072598335,0.26413438361737107
24.811867222770935,-20.610958499394528,0.1449816493627569
-3.799211604853772,226.02678901277042,0.16087291200899517
-21.655708445307216,-335.0954461534535,0.21601648184999755
16.43738225998677,120.02764522425706,0.2558752420318878
4.262377573509616,63.572262151003045,0.24534336895439995
-26.10858512040504,-132.5940260852999,0.17766457729056717
-11.423371706214283,-74.52205666307096,0.27695936394067167
-20.55406479419649,-63.93450873860641,0.19202509425754416
-8.016109204676539,-64.63190119342373,0.24902071859763814
-1.7427101254126893,256.20336647703954,0.16653789132645402
-25.345143694051743,-373.47334705404404,0.2122180380325982
27.587720918730447,-188.39149554493773,0.17234367263690933
-16.535059644595258,-320.4627083088762,0.14438606886550054
-26.333367666158708,-6.392949019305146,0.17329328307265515
-10.274469324137376,16.768288204423463,0.2166084714135027
20.156896436479904,-264.88702630111425,0.2339620374348341
-2.4511973781874508,57.184627592639124,0.2051285734653279
-8.230614211646264,61.51237389188141,0.21514294504667178
11.203414985953557,145.4949566455447,0.16271535845906654
11.332286707053303,-248.72457513180163,0.20722848144629225
11.729840449187199,287.6114734984299,0.09084841659552667
-47.18113382618415,-135.34689991658303,0.16872378896078405
-15.362695621211437,-268.1475205354018,0.17031049573926116
-11.2167078922623,-133.749550095014,0.15501611787945185
17.62851465580639,-60.70964175611307,0.21143750983810153
-9.80550744246334,-314.2287502747391,0.2224917076583652
12.852854492779958,90.5968361341143,0.23414294749293155
-10.027078343792958,-43.40530803872346,0.21449177744972586
-37.48290684264817,-156.43306149488356,0.3149231836902777
24.30385658181837,-200.0831278161571,0.23381179541633088
-12.845117815766557,-183.1124625038238,0.2347489152228874
2.7425191726231013,386.17282266007265,0.17146395450177038
17.00722076067288,-45.59172488101238,0.1265604752117755
-12.360532398488582,-59.391665571707264,0.16030149801349264
-8.6764090206569,-63.481638856830614,0.20636827394368912
14.408975829718209,223.7474999621787,0.21477467323285818
-30.493249405558508,-248.95625612575395,0.19961073043213626
8.504618888342662,10.38679682076429,0.16497861594464266
30.89310112060778,10.424611369930343,0.1806346658942649
-13.787127733384798,120.16105754628201,0.20528082701382877
-8.744075285829627,-3.449335854343808,0.2571163592495251
-56.05088131665533,108.6068607043901,0.2014549342007843
4.4159199309259005,84.50972756619247,0.1948588182133116
-8.922207918220929,-137.12064143493265,0.35650635890441623
-35.050398287197154,178.47678705553807,0.09630907374586938
10.328032935789473,-280.10681190926186,0.1776874017970167
11.64088849918236,242.06133028577912,0.2241192288537304
12.071040632314897,-199.3767952907823,0.19042338908536982
27.951233953702864,82.19106299247237,0.18128825561456746
-31.228466590279478,100.65891136469412,0.2927162510126174
-28.355464146547526,-19.565258752660068,0.20919675762123893
13.643094057657025,123.82726592561313,0.20567359695644294
12.590922606419415,390.7276655572903,0.1773988634261206
-7.131224183559144,-396.60078456208936,0.21519333737073526
-18.789962116598232,-44.915077388355144,0.2599480858940698
15.047360783239686,-99.49618769324965,0.28081938732780337
-0.21610593949621557,102.19413285365128,0.14329776992736962
-25.792678317317854,26.95141291639418,0.15438887605409066
17.633281126880885,140.53415663594453,0.23467377010986784
45.79177005237913,-215.6325871658813,0.2085791546628744
-1.5295871713487728,42.51613050505941,0.15291098622520685
-22.792259967212814,-197.93494842440606,0.22832862726849737
7.259162533879982,95.84911959751417,0.2571731075776268
8.301799187001444,-159.1658035649828,0.21281929418238205
16.418704753165095,-291.6345401606965,0.2420492287807509
23.88275331151008,76.20771913219,0.20430103305362382
-22.8812310768255,152.75145785171586,0.18250935270566232
-16.01147478704624,-247.57755208967347,0.23929500968248074
-3.7662721847669256,-441.0442016820176,0.3587450279448211
-14.332340612600978,-140.28537685130448,0.13797947235113006
45.18038407559969,-168.7685950398107,0.23351286886980843
-31.529125129832416,139.11998468017512,0.18654198213202855
0.27841288568329,-202.88951763825952,0.2781791351524188
-25.093069122476322,-16.489988610394068,0.294118477300951
28.75579290386289,-471.9944182964012,0.10596072853125216
23.677078471413367,8.214195303295726,0.13171743870788327
14.452994107545631,-324.66714064204524,0.322188133286498
10.161828211723979,-117.37915247075183,0.1030983030820907
5.278847246111994,76.16448820069361,0.2277824242217673
3.5993136783421535,-143.38933962912074,0.28341476625143375
2.8891903634621703,65.22810746414514,0.21634236423686826
-4.987434221497181,45.31276493046244,0.17686732595824534
58.25180856594151,81.67987989910547,0.1893527566618625
-21.022846414911193,-271.77659093542957,0.27955969497609373
-9.550451924570712,-248.7070952921206,0.1698416836320541
18.3159846134589,156.8967536290893,0.08393032086000816
-8.282066467236897,140.75736010122463,0.16541052077179122
-8.593963083155252,414.8145560467471,0.1498990018499339
18.7769516606228,-127.17357042394097,0.2505444093425166
38.29351655316247,-29.405029636888578,0.22194902332864855
30.724920617105617,-397.3299928323805,0.2113691269127349
7.076236034288893,132.21601745118872,0.21496597751172672
-26.870337685126128,-89.70836240599856,0.25037261397300037
-0.4252215712127266,-159.3089370472894,0.15005279721044348
-13.823063806842415,-397.2952895367732,0.16778252077139047
-46.922916694268615,-364.05985096620986,0.26154567554648156
-4.521328951152583,-297.78926819397304,0.2264223144130848
-37.104240284610185,13.438168378711254,0.211521974533696
11.489031327750345,-71.45804614813382,0.1827169100796981
53.66793242637389,-235.3874586677574,0.17135742228091444
-1.522605463304469,290.43289749037444,0.20174150764790158
-16.28445667602127,77.30463743519826,0.18801708252769453
-4.847262612678843,513.2493221584673,0.1776332232395734
21.91210804768524,-283.32572785323947,0.22097527538512088
44.01506507175447,-157.51649319095873,0.1390382993081278
6.452548321336757,-140.2278057862379,0.18294909996465447
-6.095614000448963,131.0145331131732,0.15129758277277733
-14.913452709231558,-188.12907089643784,0.31161128974515345
19.360388260532076,-49.31686484522903,0.3018759125482705
-24.259544357458253,40.02457656690846,0.2698882078815369
35.902516885538006,-141.65012377370408,0.20628606211086634
-2.3329840070592955,283.49359633365935,0.15600626527095168
-1.5690886543717095,-84.35308540571098,0.255392448147783
12.966005301839656,78.54464436044802,0.1909570428932773
-14.669597182819569,-254.97610684999978,0.13115916134522837
-1.2715662920214112,-298.7983279971506,0.2559354300029397
18.16433961673956,-7.335725125355758,0.2280559197778984
-9.327591692359633,-22.165700505037822,0.14486728127071852
-33.33620669832533,300.8806037860228,0.1370504248856175
-14.926260548370664,107.22737458510582,0.21408235646167656
0.7981853268932039,121.41370108453367,0.25411826162167184
-11.575463480717678,-32.379331407151135,0.21240821307964483
-3.831396388971075,358.36260345365696,0.1728149988627036
-18.66313195214786,477.2611037743769,0.3011162277605194
19.91859943666181,-97.69684348696876,0.149202638969396
35.403981519874144,6.955546222697065,0.1768794689650255
-17.094100043799145,123.04408683299353,0.17944201858930967
-61.36836859230663,129.95899985358867,0.18777466750666197
24.83443707224826,-253.8281168949175,0.23561757013387846
11.283050539972091,258.5819744749228,0.2078395904603557
2.554011059536302,-227.35321984311284,0.1822243965057758
-3.6460895487581024,-281.6958076033396,0.15311210313715137
5.173704564479349,327.3785971046295,0.21032718757272764
-6.6862049388169265,373.0462707039309,0.2768199521021826
-17.735798069586245,176.051004358231,0.2654457363315906
4.9306940709656555,-136.09305410733947,0.22255956839520102
23.65381576895946,-94.73849527726256,0.11106041149590787
-13.428435677918474,-208.42894950656117,0.16420920964658592
-12.242440856534776,-358.4291311139721,0.2176954245215278
17.9995653866014,-76.41303290168501,0.18941370111887204
-13.801787604061094,-17.39539121203671,0.15500468925139094
-18.496066878415213,-51.66763591377757,0.2668391409533589
-4.456080254917165,543.2321538280164,0.20803243230896964
-11.005470102729857,-277.6096095720493,0.2574121217367815
16.758656100867352,-209.65774711509027,0.1965564566728356
-6.641734965936715,67.32922613547522,0.1694208414252583
-42.325650983093546,-25.24641960819427,0.12506342627951877
4.762197808284082,-493.67016036157924,0.18313000735528978
-25.29328610647626,85.72289021822239,0.2200735852827104
8.063211391773423,317.82438119352537,0.2157566888278467
-28.86743496318678,144.8390258768526,0.22415064020683406
-6.415963193196373,175.59679140222454,0.1961450530385971
1.3704396829131045,-269.703139658713,0.21440826441033561
30.549697382349983,143.62594554833314,0.19062865025796838
13.012141321401451,169.75661634014415,0.22413432672815758
-5.8152872852840085,165.68323011833246,0.15583519816403374
17.402828973897222,261.45040977868234,0.2826100207073723
-38.80982184678538,68.68406498596771,0.28631221194500917
-23.82746880614746,415.3271259804339,0.22594359816759174
6.79268062314886,-34.805105809558185,0.1707074324934639
-16.025104355487713,-112.64217592569064,0.30215761689529885
-26.3861347073776,-210.37103790631653,0.19113135432813982
