15.51230832822792,0.2075934323197337,-28.46000531561208
-10.889199805141534,0.2109228810390084,-17.4123288332121
-8.864605901361703,0.1961546025427255,65.61141714596805
-25.36182305016486,0.2619895065968306,-109.10336854354499
-5.003150398764641,0.10553501697425964,230.07563568501723
0.44415230291726515,0.18887633123146585,-101.40408790320079
16.570893621909477,0.12790276275887996,-39.85517706883094
18.383409159041314,0.12793539537854098,126.74051974758267
6.4124909954310905,0.266207262596968,283.6369126158064
-15.273782486698552,0.1544808152348312,-137.1221300523581
14.911705443581017,0.2189914319881425,290.72492504891085
-14.37481432474257,0.23820891578307443,48.13444819465903
13.491504814143752,0.14069647988369244,-79.00466058632546
-14.269960927734537,0.17465243940603875,283.11727767830973
10.043725819011549,0.21945710270035895,275.03812387129534
1.4438568735455692,0.1257270183798795,-57.51571565599784
-0.3583060712018026,0.13868536391065397,73.0481686215907
-8.730096061059829,0.1642222824553726,-83.41237551170198
-27.375357030104436,0.30604262119172565,-273.24752068835556
37.20431750871061,0.177284950769367,-41.387996537563396
-6.761389043169795,0.22628488001500824,-259.55393296213595
-0.5577442252674821,0.13465528863174392,-262.5449981628231
-23.223604747575493,0.22727247720019408,161.4872912825811
-24.733282532803397,0.25057091463775705,-3.822906224058781
-35.755709029126244,0.20596882336028002,-159.1800437679603
2.0158362472179667,0.14132450926506007,79.49287975195679
-21.67002495438782,0.2527387214369296,15.000429447161418
-29.0997368235052,0.167820619292769,27.50412816609439
-2.711148300785834,0.26240351834696374,-207.87614049132176
9.589445679445376,0.2101049779508295,-41.26939158818939
3.601905296768879,0.28753212473562945,-237.84470975922534
7.1900997526287815,0.17013163130930523,-66.64488274564124
10.097349016443708,0.23995754922359286,-87.02060441621519
18.6472347060569,0.23694841780110049,18.93013585381556
-6.146903518138858,0.2006384888606216,376.8454999996803
14.309540194135488,0.20527406955472807,508.765637718182
45.69165076879702,0.21884789416473865,-159.13353823155305
9.721988020038047,0.13426389073368894,-88.50346211042081
-2.573703944194285,0.133779665348647,138.53895937319461
37.42961995554379,0.2747694083333363,-320.2470319742284
28.0751349105557,0.19650503355647445,-33.37545385843728
-13.53131829184128,0.25553380962955285,170.65993136140656
-24.58538815789381,0.24245604152496456,-384.6068464019278
2.980237843651277,0.12300859541718834,205.35852216739138
-4.924875969421985,0.1550147140107025,-218.19777933956058
-47.97037941000986,0.18596110928680426,475.6989412441132
31.729730925612387,0.18692409954378908,72.3855000268336
8.877303042367625,0.1850545244990785,-144.92923683060198
32.501068560682135,0.22895588110990192,123.17377329763855
-20.024794520632998,0.27360477848273357,240.82183507602753
3.5248458176360407,0.1631891818118577,-86.68518279181279
-2.2026273743091296,0.1628443865989293,129.4348507407292
-4.168325856459706,0.2725516024942289,178.68884165854107
57.57450732538879,0.1428356213533369,290.6439971920539
17.6926289026741,0.2164047113071816,-202.5804870841042
-25.019625502429438,0.2097669739414625,86.35090538826965
22.16728022414172,0.14871228832326053,-55.66076912961273
28.01656459293618,0.20963134789616908,189.22055344474023
-12.974164804710666,0.2829222979788239,11.724841629258856
5.10169557930226,0.14349942472990837,29.698711949021234
20.15137415158304,0.25403880188828454,-18.470747656165784
-27.925751060766487,0.19856180677100027,-122.81293970791971
-7.627906248718156,0.14205144930737512,293.73937090170693
23.23432171594408,0.2600922873173579,141.2905272837009
5.733822089547321,0.20566086508237044,92.1081933750948
-16.925665185270084,0.21998145364425775,-135.87699353819752
9.187078987881424,0.2620333272589004,-49.99568333025482
-21.94440524205873,0.241015206447591,423.4808642020882
2.0531159693181795,0.24154512883215978,210.4565610229125
-10.403881391710508,0.2704056961463216,-258.45505276262696
2.5160112581194136,0.16785638680304146,-452.12493463186155
17.487362025426048,0.23572362900437893,-122.68531075131197
32.350512923639776,0.24545044582970832,204.93028526761177
-14.73847264187248,0.24878524229987492,-252.7833877525364
-30.094043582605934,0.18167100388687807,70.10725326643559
-14.38833126725042,0.206459169610323,-145.04740839342642
11.472133093722539,0.24123745072072006,-200.65346508139405
-15.285824230693501,0.1769353076586302,-219.41834466551583
-21.59041496649096,0.1402078634677605,66.56743975264061
-9.994368588594822,0.22008342449950874,114.90986115814377
-5.51855021075745,0.1868655591055681,-84.65030744242347
15.305017582684748,0.17682922966223025,200.13237955307653
-11.862297978511345,0.23466737892987716,83.02769321961799
30.78399885718848,0.12762470305446877,-169.5282435519588
-6.1945444908815,0.15156575727427052,-270.5580075267033
37.59101765159705,0.2319394822951942,408.2531270156676
-1.3460679222248957,0.16926727442776546,47.68034433936909
4.4441731782541565,0.305083876107315,-43.44773327789932
-14.28851799547816,0.19517951070333925,444.60104646039156
-17.838329445710656,0.1961749797022403,-338.2594917165347
-18.476315941252455,0.22125463450686617,413.71848362928813
0.09406269243235058,0.23174900712167293,339.37472304092404
-5.9898826661958,0.09502610328306359,109.21864739299893
6.02054643514554,0.23064391493730826,64.05742912433597
-17.686583527164426,0.27091299933199275,-169.06383311256155
-54.389260751730646,0.20018189102682632,-48.048841374446354
-1.7254870270943594,0.19255032021897645,-517.1544108930085
3.7812688430598005,0.19844064623435886,-8.98239754827802
-36.12645258050919,0.1673762142215256,-392.3115880775165
10.239510169337422,0.16525773719001818,-55.53768339456665
3.9280222957350364,0.1680606199566675,257.2768325216376
8.56165008547602,0.22393819797675954,93.10227779689357
-27.176010298528684,0.19637505115305434,-145.12801701737496
-21.01159685251346,0.19627818101627612,120.92895070509815
31.604253119747575,0.11718848292147721,-399.9572010750458
27.75719546463947,0.1370611310558415,-444.89750090681434
-12.939519911109835,0.24046341561884876,41.50407194816601
53.10611969029429,0.1694668812672514,-70.05726428000317
10.037579334625725,0.2230122611994753,37.074809452755474
12.750006815247941,0.19310487816017569,346.6387075130044
49.82662659573165,0.21893500727685175,117.1576569605381
-8.309041765256746,0.21227405618749992,27.464794359251233
20.522808463629126,0.1468703135495605,225.84343668170925
2.1475808887364582,0.1445439582425832,-61.84931828454112
-55.680160542318944,0.1897971049915464,54.4755776299263
-15.326540982435716,0.13799679734658182,55.01283549020391
-11.920374235791165,0.15957963124570718,-219.69277569217306
-16.211535380494347,0.2760313374385885,-137.07472088545438
33.720868947957584,0.18141990617183287,186.5113338003042
52.32362405428438,0.20598100484153264,16.961402043374353
-6.978356521155705,0.15068903286375973,-126.30639914479782
15.556067554269546,0.2569200979235745,203.95596415068488
39.31992883851188,0.20267639396449533,-359.2851305834675
21.36578658156995,0.24005927966358642,-119.62877638493019
25.76627247973874,0.2975880174685291,82.98309263959004
3.365595169419968,0.13275468259091003,-43.92556155156637
6.900844251482566,0.2057593001604914,59.174406309084546
6.812443807744067,0.2436273604376495,0.2889233316762076
18.949659346355396,0.22523137164790752,-124.13047224655223
22.026852191981952,0.21584697343509904,16.449199418363282
1.8325658008257562,0.10612540492819955,20.47369029950699
13.765351613563613,0.2339569957626304,-73.92687884336965
-9.595977003771134,0.26059458534975755,-278.0036169366756
9.331784972136944,0.10581881384565488,45.17123641805744
19.673719480730956,0.18933180556575102,190.64965207274022
-18.836437674892856,0.1484829521589508,-90.97316658803763
3.7131142407443214,0.18219587365124043,357.9341442680322
22.78095908748743,0.21892457816597966,239.58890736603996
-2.580463718161752,0.21166387696466402,-231.13201825221782
-23.46829104517763,0.2783987203209908,37.237720549160805
-25.496984888282782,0.1886677379756428,355.48842669891116
-35.73160218745042,0.16322747691321401,75.49733560853835
-5.552577265723966,0.16079913463776127,-2.198485355290377
-9.042796783575346,0.2986719664750095,-103.1150436509878
-7.688856433705427,0.15409452624184566,-351.20860288264623
26.94785585850651,0.19839028357850713,20.628091207144287
17.252915525324337,0.17040200340883088,25.339470828373027
1.6260807177693026,0.20682296132280115,-36.538845475541606
20.337030489363002,0.1970738424913376,146.32363355001036
-28.46243795363084,0.247607703220881,235.5190343629926
1.1594129541575378,0.1468938572633306,83.17965713933233
-2.773151946524921,0.20740054154979468,-15.15958364703041
16.939212662257663,0.1932694923898073,-79.47811954170065
-30.073082505298608,0.2045716963440703,-177.11546845631887
-15.309917969592652,0.25217036387968395,-114.32430137765152
-37.64537204563355,0.24284167562639097,-30.709527474184295
29.3167035642441,0.149374557305364,-23.287256066598534
-18.5577886677991,0.2736484354856452,-360.85249500544546
-13.110141694027764,0.22506748308616242,-197.39795290623897
-5.7691333515122984,0.2764478992627034,-281.08921814824225
2.1525986921453133,0.1249722205883627,92.79426996100304
-26.141257692627377,0.2709354847823156,-33.43168914954714
-14.534184368208312,0.12943836019071114,-442.4530904614081
-3.802607245568951,0.17469923147961636,4.038283879150702
1.8585277187986005,0.1369065413341138,-195.22549231370343
22.283070843502685,0.18364520834276646,-159.8611073916783
0.21502797968314635,0.2973306195322677,217.16449683575013
-6.5171301434887905,0.16653813464641504,-19.20895215143235
-3.721928264869745,0.2129923715355571,195.64492519381616
4.845584940033797,0.20217945690256514,-162.28958536194276
-1.9750946840421006,0.17150597826064773,-631.5860437057717
21.458195080676084,0.12661521578400176,-207.7961769178085
19.277748112924368,0.10122787804353897,-130.7494517020524
29.518179109624203,0.2827824295149869,185.71404915871756
-1.9743526969684353,0.19005167859411654,-80.45407960932415
-17.938626057211142,0.260523159227253,77.79780894474372
-34.63187946084564,0.2504486845722169,-89.24835473072648
-7.8643414052645095,0.23200207759831248,86.3568681434833
30.08017286976273,0.24581991429936334,-172.0201456136797
-7.144099557792837,0.1722593698815589,-34.16045535518595
28.604961912347573,0.15727909163984038,7.658140951743424
36.79166907522992,0.25212429036487727,203.70979741590395
-20.81106424302491,0.28152126706031905,86.75427475932756
-14.013490921138159,0.1562985621939948,23.53890864747221
20.030438880511685,0.17478699488793553,-152.34426407287395
11.879690727212548,0.18975194923763883,210.97278163609573
-10.984336985024148,0.2113659443861824,-524.1483878013527
10.061950450379483,0.14598291220325704,255.06358496173166
3.2513743497350935,0.18733404309818616,-134.60179586784633
15.528093840971076,0.24850858513014756,77.46499135975175
-6.0912874152512275,0.17192142481354167,-36.61858226436877
3.076195089955805,0.24044245111289936,283.6411070412048
13.536233264125453,0.29538023826703863,354.45714358397913
-1.9682891228354968,0.2291989343621199,44.64087061103441
-11.22682355521979,0.1532116474354605,71.61888348997365
-27.26568221951993,0.20547421941800265,145.15813964798258
11.784994611483823,0.1516298813304184,-81.77876239111217
29.569019572162595,0.1689760617555481,222.91602724076714
-26.172739318647075,0.1879815744134719,-171.61465241140837
-1.4256857292686997,0.18448519649798079,-191.99741569299164
11.846588704220885,0.22797888042507036,278.1005116929858
-1.0207059950120658,0.27342889581711866,179.5025370665461
-19.012122549464934,0.18572624278461894,127.46680421547929
-19.581920120551736,0.22297857169869006,-150.33789413674944
33.60385036757917,0.20250765386200464,-247.49618624387006
3.7791171041139195,0.19897039258448257,-100.09212784011368
30.766843049425784,0.23413893475465772,-88.04276040092778
19.750355974246006,0.18592302133620486,-139.63924529519105
3.94424820738225,0.10592830897848703,254.24023999163222
8.059560313919464,0.27160960421783426,93.83651843848348
15.654434718924435,0.1786255243523328,-330.6916766022134
-9.321528200373434,0.18999224090995778,-43.864129893456585
14.075949343253885,0.16665630039917778,102.17002791329541
24.262819901927323,0.24878458760724742,-165.15855636482172
22.209452862180697,0.14545256377512977,301.1508118064712
24.01456139570729,0.16567779936842067,148.82266340775215
7.927374991789668,0.19067568547751296,-330.53927098069835
-3.595483012543086,0.2535145397772041,-301.13724686032464
10.603738620923131,0.17172664935480814,112.38094158020368
-11.378164456890925,0.25917170841894316,-50.529327266702225
-9.423939644869634,0.22461881117816834,89.62954593298765
1.1174432293413836,0.13063187733548562,-164.27161030671397
-33.03184871309263,0.19487738356562295,-366.7299436016097
-11.292203194707106,0.17777756574067344,-121.11619494827177
-24.324701799192813,0.17825018968039263,192.81075646197684
10.37147907819465,0.1927116077728334,-14.573010453682405
-7.297368324815059,0.13315509419266008,-4.244845545319105
0.7071844105414469,0.29412748447774506,-332.29872243016547
23.19080308180341,0.19988015772286624,231.0159931403189
24.65333512038889,0.22164715376146027,-118.11020681832349
1.141723322649602,0.1923074249471988,-129.6985804534819
-18.62816732491889,0.22449509152164943,-2.396125630003981
-5.120485083660115,0.23609287504972662,231.83573531503265
-43.042806411930634,0.21689483674908488,-78.23140409465134
26.280969558800056,0.21431267028827744,-126.16434891800769
-1.5907415846640558,0.17838797381444305,-66.21439940201721
-17.17594258604537,0.1910312032343998,108.65954055293727
-34.530056088112715,0.23803254171498056,59.80235576299921
-15.301628580078015,0.2660459684611789,75.59189837719985
48.84717699198612,0.15731698427229443,264.85498975933314
-3.188746554304303,0.18817258559354905,143.72633745204786
-5.080866664718457,0.24134785383996873,-58.641823835349626
-14.265684944439647,0.17577636265449714,101.75291311426294
-3.8031078208703444,0.18918057135493524,-293.63130952884273
40.17099008464353,0.15473828593242292,-68.38836383305343
-48.42911837267137,0.15730815956634867,73.50288491730262
18.836156980052156,0.16602837344882151,4.720548780649149
-2.234743983749439,0.24415499865694848,-220.45060356821526
-29.77186167494466,0.27940598597082955,-106.65843126208986
-10.006763138298693,0.24955638777230837,-110.85790956780582
36.175094472057665,0.14461096338902987,189.79564715171043
-8.271216471629444,0.26871880653578806,149.3014923451328
39.62626865400591,0.1890582053736126,170.82047880926063
-44.47092113413909,0.20336898950439194,-98.31369603325544
-0.4663234633422657,0.21467595623787228,31.383913525519024
-48.817659067020514,0.1540416827425801,46.33061486495208
3.7869381257212704,0.15471513846988444,4.858086689726388
-45.80842951082786,0.15043731276389666,286.40582551050653
13.362572590617019,0.11627069536255319,19.049793339646858
-7.4829737801363505,0.15497951321787817,136.48218344469757
-6.31936086908973,0.22238521306658093,29.18199702246579
-4.118956275891688,0.0847180263647033,186.1740408986955
-19.118006205680057,0.19601266459566288,164.00236132469627
-5.918714347635284,0.1461385382723786,-65.29667167201043
19.7296277776304,0.22448778065611355,-106.8403886577951
-7.9913334111850745,0.2346875294204264,128.0680699213758
-15.911303783749684,0.16143570252309322,-173.7560977834921
-10.894785838520061,0.22964555529287126,-39.34990578029023
24.29679451774913,0.19380955724569207,-89.91865768048993
29.976558569415417,0.13595008671865522,36.16814036665018
30.334079855331698,0.22356300780578783,-58.56748071591156
-11.015664007084753,0.1475127317217571,36.36017301750564
13.26147371722018,0.2270824054155143,144.1705376766316
-7.90812800654678,0.26870660340537916,120.83874760812137
22.45087950037081,0.17537552117563635,-151.86136760027847
38.70509030137081,0.20101216987938286,-163.11799196794567
28.509394226094066,0.16023178824606693,75.1454981729516
-18.73254169123946,0.21516162587758939,449.68919396930386
-16.591239008202926,0.17177989454076395,187.48032910260574
-17.134521119213538,0.1945313593067632,230.18933900702606
-26.47469949169405,0.1662969014959404,-156.78717414116554
25.542156746335174,0.16848313512422214,42.77906778014053
-16.46206053965569,0.2284270960836648,410.86278896333914
-12.690743724449172,0.22256301740318324,-111.2702989436859
12.535054126005704,0.25228616540113136,-188.97748502318893
0.36889054246196273,0.17088004150253822,-8.690390211666134
-3.5306767005159756,0.17967204445138832,-432.97460210855945
40.160412577494284,0.20299165797080335,3.295082662924879
11.767229139576589,0.1994058928630786,298.6101440427009
-16.062053172905394,0.27322649108807534,-183.64819582982267
14.362282388110547,0.20656139441879312,86.56884809008189
29.118051055581983,0.26694424056118526,-54.005162612463806
16.193815983617277,0.24356476744340566,-250.29448380203058
13.290675063224583,0.30170478647510623,197.40734016118148
-7.408029589946919,0.15841763303850126,244.25166825803402
32.16738014660724,0.26413421812325166,-6.707358711050522
-2.6872112873831107,0.21211092272112608,-445.6631926630878
-7.378856504315106,0.20861369534330745,156.4895352403315
18.254429145161836,0.20834719526847306,104.47666714011079
-19.214998154847564,0.2509832561784616,-24.17945026332743
5.851530433529365,0.17627739736237913,88.10451178568377
-21.32204673570916,0.19510086836010124,216.02009105784293
-20.135185239871305,0.3176226633637228,-159.12389805154737
-28.147711592033986,0.23368150487021183,180.29257030676155
-28.767977012186563,0.23178113142355622,4.536407759543741
20.649302671789297,0.24000976836216217,-321.89093213415975
-1.9202538593207472,0.2044193122594438,-41.1958111455304
40.060489737629766,0.11307530754179691,-82.9357441423086
-11.260030154378303,0.15475344082036668,-91.66005873429067
-33.83684585772621,0.12667020707205162,355.11492453598015
8.803197631345036,0.1798473387025739,-268.7117565048585
-7.159397274031073,0.2089833683852761,-27.422186620428302
-3.3128555730099936,0.1265584366404578,131.9545443884511
-1.8127230946148152,0.18600999520819028,-244.768393229326
-45.329189398078604,0.23992553683012566,-109.09955992532178
21.78100403088643,0.17452376910358988,285.6674990656458
22.92451774930331,0.10802516690597096,109.70422827156945
-20.853990276357123,0.17871060628456029,-165.13834069628308
7.890051147838086,0.25098907985773145,-97.54777961579425
-22.21199165894361,0.2540182490946668,-54.13777233263294
-13.371752288599039,0.11850988746157376,375.35795706238264
26.82243626205277,0.18779146870328675,-110.58230707622596
4.373149715953541,0.2376555763901801,-226.95054382650613
-28.258465270267056,0.1876830883006278,78.58955733525531
6.061110301603774,0.27002620446037195,139.8502053503123
28.570558093787156,0.17573000511025852,84.14181047078787
-41.42734962470493,0.21142843036106543,-214.8950185476016
-20.373165415978526,0.1957646138125108,42.305613366893574
43.07554139227687,0.19211320227054535,-111.81076805379628
35.94469437699795,0.1255788831716475,-61.67111227883312
-6.283226175542332,0.16812448957023096,93.54928667769865
22.54250829823458,0.22781912760768602,-307.5855434033519
-2.6827516669862277,0.3289013285186132,163.10774992655837
-18.395855471738592,0.22603649388031957,-122.02274078059696
13.90848784595259,0.23408170233931352,-240.11160857389075
17.57798547099983,0.24137165920955506,-4.571026524964432
-19.725205656100012,0.26226504946599466,7.786687271158941
-2.617580130845791,0.11960861169674775,114.1602985750358
10.264816569273783,0.18242026074628964,237.681281073036
31.89671155675218,0.2608042831448033,240.06180922411403
-9.946458226449078,0.1932592918638055,-41.398715259361474
-1.3402437258997881,0.22403884652549663,166.96834198269912
-45.858441697383505,0.16859690032572444,279.44586942455317
-26.581976160471843,0.18648086866874372,144.53364381646563
22.509906362902893,0.20815026283956864,183.96073506580117
1.0184567421319768,0.2585463801951231,230.96373644844044
15.254683729346807,0.13630314162020185,369.197734807146
-13.739783170501154,0.18652014222366783,-49.89911270209953
-28.101279915064246,0.18446810852437479,180.46900479694892
-10.316234505446866,0.09627251784494387,58.15833699675815
-12.39684969891458,0.17346952273023397,84.59054036229767
-9.397212415267235,0.2878607295995274,55.26445757901459
12.760181185968626,0.16505600878862087,-57.90523276447838
23.34458804018656,0.18378943219888413,-177.26751306260914
-0.4665372564158209,0.21897164863843382,-88.35849469080009
-4.20823575418989,0.17078314249572898,-71.14918044679168
-1.9313350063584667,0.2567916422423367,-59.72133576632671
11.13565723877427,0.1463100552521196,-39.18255524310095
-32.06947374470856,0.17203392277120721,24.455142629930187
8.847581936055892,0.18275597842451902,270.71328099806567
33.82740699669507,0.21619542999256453,-463.3401427119894
10.604217196018247,0.19034717510081361,326.9225346295626
-14.342455315295933,0.27322646321995664,-187.54865736151137
-3.5986477578027953,0.1871763116568171,-549.0584048579959
11.588174205195534,0.2115967889395898,-29.092248114277837
7.77651298145719,0.19831903010451915,-324.0718632306135
-8.298905680734705,0.3237796931562107,303.0838882979545
-40.78742045253124,0.22642864380108735,21.41882422838944
-47.35512726402432,0.24959675231095596,-73.2825283798739
17.318905154647446,0.2063223649257062,-44.98012052575226
17.949285809568238,0.2343550260094861,-195.78695198590407
-15.511179079264988,0.09350547375428414,-41.1999587844373
-6.920351153643559,0.16845461610520301,-163.90088459759625
-24.039922811725067,0.2769970813182324,-452.24074285227545
26.53625438047765,0.21933861402060134,-100.57386077945796
12.532591033774303,0.24995200505471682,11.209880551089025
28.661024684268238,0.1659636883445624,-190.82615459283232
-17.69343572005356,0.3084591494417205,145.5585574777299
-1.158412545951183,0.20298311706766772,-53.318917991189075
14.67935165666034,0.25169919543241565,-253.3965562197867
-34.62125538025684,0.27866059464976595,-86.28569341162004
41.494402121805706,0.2540029271391082,55.928056513012905
10.2720740333091,0.14888441671955768,-331.567968435154
-35.91538281311401,0.13245627828555684,53.17938170632345
9.278562191776778,0.12503390242257348,169.02064907093438
-0.09444829382702928,0.214179835437974,-364.7880171730562
-1.4397922261254679,0.25044962652473535,16.37168657675227
12.764378137179131,0.20319085293259784,321.9259565522877
-6.550796378416074,0.08291728804887306,-647.1567136613162
-14.946865050432471,0.24718583153287116,42.420877859320036
7.024256777837658,0.18591286563818782,253.70441213391138
24.61066560752323,0.18561644426976778,-53.719228228765104
-24.900491392615585,0.16942732496682406,-85.24615012563847
14.908715225075273,0.16404637915453643,-10.997316557430754
-10.747976425686135,0.16421657853399343,128.91788897404223
-17.719749663980593,0.16356506427491552,250.14271759174665
-10.765259196339368,0.2338182924238573,-182.4528935686408
2.3020570913557243,0.2520124926588054,-154.48923601515855
24.729704622919442,0.16944513443146159,-540.5500902475513
8.728942963164183,0.1819842078818899,-55.894697655524226
-12.444165924150175,0.2318968022659895,-168.56968215496804
-32.917975552288986,0.2415263632966462,-303.5306919381322
16.50231811679199,0.11708144265671921,-157.22272977891697
3.0449223990484864,0.23594160059639513,-98.48398689872873
-28.000618518866585,0.18344044503691673,-259.1703679264936
-1.7813843793518447,0.13737302993501754,19.27736345733917
7.737693467971364,0.20016168812173576,-211.1256999817106
27.668892916836118,0.1504635364147487,-256.40283799333406
62.736758673528705,0.2412182086821397,-100.44880243087204
3.431456113602681,0.2416605106689753,-238.94129441261788
16.88065464482927,0.24249048053558342,-174.8530604045915
20.44469267860925,0.21853698717810266,-160.8137052250715
-12.668470466211977,0.20257316256655927,132.8703688954436
-5.054592472183895,0.15239290948501322,-366.91056097574506
-24.628909335324213,0.1227339882007945,-126.42585668309898
41.147910173109395,0.19460132883628775,-75.26221872670762
15.660518671027972,0.2220335209029673,26.574510285521118
-1.2443923878408905,0.18636219333075305,69.58978691880162
-13.118469580608746,0.2662975831897103,6.666428491353712
3.419932834824844,0.21722568738509912,-28.052873574671416
26.691097204951006,0.21567999012616595,161.06949708986255
13.461165034146394,0.17768202564090724,-309.632555689733
-0.5018799762500312,0.21039018133808188,-235.62928428891098
14.91097697545434,0.1803180888704276,153.10826463694158
3.3691228943911975,0.22323157199489235,168.54846881043207
-18.328119692539346,0.2179073360150868,17.434402698787828
-3.964620297157832,0.14180369937859488,117.46440002219131
21.853532534772707,0.1324101441384684,-223.39675705887709
3.0839148892187134,0.21880515795699346,-246.23978148149484
0.4119769104780673,0.2342542492409589,84.86742975966294
7.298241083670609,0.16633148116846383,189.82566968695127
5.816050356750818,0.2185989754937643,-32.397992741365826
21.679374400168637,0.19154428224028133,-366.4781132727456
16.194329604426045,0.25607928925149914,37.3306824018364
-10.5120666943389,0.15480828208796232,-199.6769852144061
16.32583748576267,0.10444276801947222,16.590516526757888
-10.669931467039957,0.27513013607523873,23.78584294675301
-0.05066175341821644,0.205942212408378,-78.56410926645471
-12.328345303349465,0.13219026830407338,-166.24813971741779
1.3331272328644528,0.18471492722463706,-76.92924900985867
-10.908116517611155,0.20095372323298774,-79.76137131782318
-10.206058996456369,0.26559475153560974,-264.67401653291927
-6.747972153076298,0.2267319417054292,261.6707095011286
-3.851019732979848,0.20142062745682582,82.5368121049049
24.803806614603513,0.16816691116813304,38.620363743096696
-13.591366600230998,0.25684420801597074,146.3272555972557
-6.397469153286587,0.3414527202025144,230.66527339681846
11.39783093916471,0.23701021960538995,63.96159184319392
-18.632932038224318,0.25025612805954495,-81.51274659666113
32.4604730856209,0.25607279413699036,-62.685522079222466
10.101672652075084,0.15733652421275574,54.65828418558056
-1.3582886212422685,0.13791506675722193,54.00012133172436
9.96640937904897,0.19336605835368673,239.04108351954883
-26.68875543838668,0.18218383035440572,93.32925612767076
-0.9404617404161019,0.16787035218555935,-12.080594993170841
28.514746807104263,0.1657449601819117,278.3861772534864
5.573371689109276,0.26481185398550533,-104.60424985999694
-6.0901217739302105,0.15617887146343165,-437.27083209325207
-4.069529724116265,0.13933806493275705,-198.66528383110767
27.058311864561983,0.2592014452576426,147.8249484285713
-8.316374407913724,0.12231467952004788,-124.37055693590881
-11.509494225936521,0.18767022469256905,330.10874934039026
-6.767652430304554,0.218566470422351,276.3644837287957
-20.708859715566778,0.21362731996423132,-282.7789753556396
-12.353764143292166,0.21270329904820118,-298.376579707444
-32.77380436945821,0.18881623151052684,212.9690147244586
-12.331090762828424,0.18041040548714293,112.04789134680662
21.338468660030433,0.23237409555840116,-44.207093613491615
12.945361292101122,0.12840910912608927,-12.326692599853612
-31.653328365043272,0.2253159898440889,57.46585340556324
29.095080983271586,0.1988170755634057,182.58359607959565
29.196737846301378,0.2069401908566113,-176.533987633365
-1.7853599958368993,0.13666285716533175,-50.403265018248476
-5.249956110405879,0.20982983410523764,175.9974029834395
24.984113296836902,0.2702869694183779,385.8034338528481
7.6390377254264035,0.18605754145194617,-318.99942141418455
-12.590138666964641,0.21563105668891372,-22.603267537738418
12.478832234294488,0.19816889667885176,-128.26420132068213
10.018850462603535,0.2729743051989106,-213.86020892951794
12.62359024320497,0.183966514823112,85.94138143248584
-1.966682451783261,0.25096661216615246,180.22769967712665
-24.761350471245713,0.238013740760859,95.79807228538552
-14.867673147345894,0.17207958663594736,63.61881944758877
-26.58083098275013,0.2254738751483386,-56.75217649337632
24.60724103052984,0.24101559555363763,249.28400829235997
28.312837802462475,0.26214793005984216,-308.5057579081449
-4.9651372803608735,0.2583242837393902,439.6704388026562
-26.21061005644505,0.2495228807990526,-117.50331054582861
-0.48309630245346324,0.14908334140585588,-336.28653185862504
-7.9094665348668975,0.12167895190259193,-40.833323081095266
41.024532269690695,0.15553158148363588,186.4679469535572
-25.643744337796598,0.20614888051754315,-115.22157779454292
19.661451473948667,0.18370401295538674,161.4459551857997
-20.54360357837018,0.2507405288372228,301.74928579886347
-14.028440221716457,0.2688034465149818,-391.67465528146107
19.951730498831807,0.18202320190347326,-293.6420707010553
17.405504466678458,0.19169751776503213,62.92265113714129
-16.466241246045204,0.19735432793273938,266.2780924824564
-14.302244911845195,0.30144979902970426,86.18761027510295
26.119415058069553,0.14611600623784932,131.2223874935727
49.79042470906417,0.18762144701515077,30.82969483390275
22.002174594559797,0.17508112485917213,121.85466684988691
13.17869773646457,0.21311343381875272,67.40787758573657
2.321485598030878,0.15759098787918993,159.9855550971875
-27.985020595810074,0.18659501608127688,406.27717088111694
3.1117640304177057,0.2308100063770844,-265.6726550140108
-15.143071447884793,0.13063002040541916,-94.06354957394197
17.396494275322972,0.18607304698180538,140.68714390468148
15.645233391043691,0.1602294300362072,-39.88770439351205
11.247122236597143,0.2127757854871114,-358.0177051275034
19.69360636878202,0.1946657659935657,39.56864666809312
-24.853493313005544,0.28882189051847257,-16.891074960720424
0.6482891928798769,0.22094230477867788,-107.87282946204743
39.05456946188047,0.13137419952771118,131.72124735351275
7.048127104735532,0.2604702127608771,-133.41950083818915
20.284359800763852,0.15905121035962386,251.09191949641533
26.844903905956826,0.23409693167414053,-108.50877357040272
8.134287812853549,0.22586258672307075,-198.9771701617637
19.71418438772004,0.14871320435729865,-48.444540329614256
15.559500234551136,0.22913425195192177,-108.34289857974282
10.788069796475401,0.21018305399174783,-130.0046786620901
-18.426940789694378,0.2063389100015176,-14.121521046653648
25.05204984678894,0.18153999128326906,-11.699928079617715
-24.999997644471787,0.2577121398840091,234.4289892830889
-8.874389123690115,0.22891037905927464,63.33480886080808
-7.214822840627148,0.2118075176474601,-240.7495487878267
-9.843496436950188,0.21631714839195298,-450.33376145671974
16.147528761741803,0.3053974591716008,-27.15645576733082
10.865412758595665,0.29333755166223785,295.73193806660794
25.228229737153832,0.23244190167518844,110.39181357046293
13.334416207091254,0.18304465349707613,-181.09247542878316
33.363897076535025,0.16605070769367763,-73.4288507102988
-24.158353708341526,0.3107840886518024,75.77433716531776
16.596704117274953,0.18786677104404245,-536.0175980241501
-0.8777223356343666,0.20589965126779908,44.799582135923266
11.914520307497176,0.19352571526058637,10.308713923881541
-6.060322557382093,0.18121369898682646,-39.0185317364736
-8.530345730109293,0.2648070441920615,252.49670483146195
26.515057614903768,0.26423853734065295,-27.90851262553104
-18.7530672710865,0.14291861549320325,-445.85382708308384
9.592545738301219,0.19058834366301713,71.42132725657963
1.7518803816112463,0.17400211258956186,-49.339215135907516
1.3964524733252732,0.2154448911914811,33.18215220161169
-22.259909464597566,0.12383654731628742,129.4622649744598
-25.74516548285014,0.21077311702230944,24.638138728400722
29.76690964485076,0.1724228961476836,71.87356454956618
-28.28414498095991,0.18645050630159385,-182.48328071624914
6.529732276391886,0.2345186143084983,91.96793638861526
4.097558695265872,0.1940268160455127,206.04337694497673
-18.721856653165624,0.2663101635084116,97.82870348413178
-1.7279828894433433,0.26176265138169824,345.6277336536451
-37.00182677873792,0.2266779261947381,-217.31814938809754
-7.25288746189377,0.19469510425881423,-242.61398308088476
-1.1557956314384452,0.20601031247042934,75.97135928053711
-36.49061265997987,0.20380685858884268,23.395797568468424
-32.76018821141808,0.183632610429582,78.22866547815724
17.310214936011285,0.21751548514643804,340.126135643238
8.746086974452,0.24095214318161884,-149.04904281680388
-6.917924338886143,0.11610774307827257,32.36510033786876
14.604533407904762,0.1688778627001676,-295.8676324537158
0.5733254120948643,0.252109195426363,-201.52616750461232
8.26611109479579,0.24749316723992223,-35.21773030926106
-12.07587746117446,0.19040438418935549,236.01937106130185
-6.368324550074615,0.2076481943067864,-237.80540189860068
-17.58664644829615,0.2108636996551079,-90.2825143353967
-32.260694954917,0.12882161066927428,-363.0826326185143
2.333342625147678,0.248059718057336,92.45714550903745
-28.160687297271522,0.12868177536130918,136.76724833140293
8.668196603698188,0.1867050580607308,11.79566157333041
7.836547009101666,0.20248301790759426,25.331238762979208
-2.3612534841285324,0.18657956787721633,6.3764628804372805
-1.9039953137963117,0.21201446710877545,131.86779139182005
21.62775826173959,0.20923356638338936,-251.17764386802796
8.80778432502237,0.217058680978302,205.45027249685944
-1.1343950212743217,0.30714518910828587,102.45594251288561
-2.5256689208753786,0.16371753503126713,-63.98771895922608
-10.097357288039305,0.21211312880266747,-179.52274495006185
17.27361375486486,0.2824976469309663,20.483364529414263
-12.380655503069173,0.18585924662080283,-491.4082058580549
11.916936454993191,0.24011990383576814,69.94961480565367
2.257791726087371,0.21753977170426653,-64.59554678085169
-9.734121787988402,0.2298835771905202,42.46496356350512
40.91941546950916,0.20458563355606235,87.36471149767576
26.027121575818395,0.2359313970969623,-33.90385486307001
-31.393937309518442,0.2289644185287824,-252.74860491806828
23.282494828185843,0.2619907342110497,30.965463728611287
-6.894734444031812,0.10599473128284971,157.35036071139527
-40.80131053596595,0.22564115493161604,-43.93374019826078
-6.790980166723909,0.26516759281602853,-187.286224390071
-32.716012415089274,0.2157921005453559,18.67629880614425
-3.3157175769954526,0.27338578027750715,-255.5399585288547
-3.486277114232428,0.14891950566164686,-97.44627074457726
1.1321853054324218,0.131379579521946,23.848353974675273
32.77459743990498,0.27297522807886676,-59.90789418477009
-34.267430061973975,0.09408013516459784,149.28655956676243
1.2419829560047908,0.2334974630423859,-173.91010480009496
26.661318813067183,0.2311163977122248,310.3261050699194
-3.23885701533075,0.16554805248504612,448.58503736714493
-22.643254781083524,0.22338104779108592,191.9730892524149
-13.217161494635494,0.14361780330305518,-81.67432937587932
-36.12293841958514,0.2857942174649382,-52.473327279696726
14.103293606437433,0.12310364231105742,184.30430479077017
22.533953687078064,0.1983798979268262,-51.38796300084063
-9.019323565925541,0.1938857109763548,-16.72945930982508
-14.97570247406504,0.2116990737029828,221.467865445599
20.47437070505188,0.2229122698710494,-92.37778071335332
7.480902673124621,0.15930099357963984,251.5818007528951
3.4171219521813923,0.11857370161748296,171.2518995741438
-13.782156367466902,0.1336318732752677,-33.028076726427116
-5.716842342185772,0.15898684563398408,-237.82816753640228
32.43678083660704,0.12473649243731962,-201.29379916185286
26.659487528431246,0.23094309679231695,151.92702299336406
22.596361763265037,0.3324087378264713,236.56532443991182
-13.035701301480653,0.2288572800962518,-484.53478940502464
-10.314767955436796,0.24814390333831124,50.80147853485075
10.934850791334629,0.1978332508537338,-33.09852105575155
-40.81182827282795,0.2214079950709124,-103.70568768937163
28.332575466149954,0.23630522215958288,194.4376127767795
9.427056697997795,0.27735937170531827,-167.11913318794177
18.19160153514608,0.2203502427123798,17.92649367748824
-11.811037481566661,0.16904230169881085,-398.8679714932486
28.032320202408524,0.2243328699334302,-463.165423705456
-15.760224069879822,0.2162861223966966,-136.28905006944404
-10.860122369686707,0.18706777047990614,-44.95199870817433
-26.688555104332707,0.30497783301513526,52.76101859428255
2.815596735045878,0.13960756102457195,-222.65950697521077
34.08346670278564,0.10444516174293755,-17.405495807579072
-18.90016657713847,0.1633561421305223,-224.23385531165212
-6.7297132290886585,0.25565400074712963,113.02089653068212
3.2962992568409764,0.2616905819169402,151.83830821732502
-6.100561131740977,0.1802873191064771,29.031651413251364
-6.013121278035315,0.20178889681957124,-119.24179506633993
43.92130933956338,0.1558239498715963,148.61579246296074
24.772449138293887,0.16144850149309883,-92.57308870346465
-30.560271329548662,0.23405551978843245,462.6611913839439
-29.178346789531457,0.21904308797615796,-251.47781665834265
-4.299117774918988,0.15693278366975077,125.27373895398586
-2.060086132572359,0.2310883944861738,-33.16217716059494
22.153678374504068,0.1902111592058765,-150.598445731053
-6.4854457168749144,0.20905275240068716,316.00293467599704
-29.182273898942217,0.1820114673057589,47.89157606745839
-4.155218650774485,0.15809957757448845,-197.19581039409877
-50.437598092008436,0.17328854835785173,-175.69710307852657
30.695210989690246,0.21490438692655567,-276.45164497746725
7.656601987890732,0.21747373208978754,-90.86514309718137
1.4752772375646361,0.15517343440370868,-73.26679061320536
5.286921741707462,0.26050909457123506,-12.797489243438184
49.44638074166449,0.1998816930464427,90.564282979638
-6.737950336075006,0.1882527280729038,56.74237633265394
11.301524950123376,0.3188105528963396,-117.3512185245584
-51.01980314548972,0.21508049146645358,-229.77076914619096
-27.2511147573529,0.2847890072441108,17.792745086341924
-0.5697938296595882,0.22029980490778445,55.39289948455893
-10.057363968694755,0.16967162080406326,-84.0400378319445
-6.613366471736136,0.20341182432228924,7.009854877698532
12.337906610248062,0.08303825553586969,247.7670461729838
-10.795372806290098,0.21374597544930632,-123.96228671999852
39.02584480963598,0.1889675711426618,200.01249816960308
2.9717591324935784,0.24852833142352404,104.40200640337525
-1.7480156436146972,0.1373607860853731,78.78183518109373
-0.09491099022053055,0.1356773078596688,-211.25978568389036
-24.243898755824624,0.17722152602355998,-27.23148292036693
8.821297708361158,0.21195145035676613,227.9732441091949
7.0625675231691165,0.22416727446560367,129.25540856011003
4.560275317916595,0.20993515053439274,-177.96542667047993
-26.61592720821576,0.2018983596094628,-79.5741166673994
-4.161424453539157,0.11724150491892182,100.43797261600476
-55.141402207061184,0.20459608139566332,-11.581516835157778
19.448539199875277,0.3106882678248855,-256.068258108563
-22.398759788726682,0.3095068297093615,-411.43640703297217
7.393073451728448,0.1657427588616953,374.75881257374124
27.562050010062592,0.16156764896932246,-152.63879311862328
-1.902349751713065,0.23308146993846796,293.92748626245736
-14.547986180352922,0.20444335775402944,-598.0125537613472
-20.873595766435287,0.28737122159170736,-100.53672484692693
-2.1831860215700356,0.2864751434855862,399.3026842834324
5.376157634634824,0.22389466938491465,-101.28160471581748
-12.062093360779704,0.23660619551796822,-78.2549196652415
-9.800842021113551,0.1989119977637919,290.9084679593545
6.2377572549606795,0.18444610246690016,-115.24736978516279
-43.441051836674276,0.2770431538142871,88.23681289401979
-5.429694922539504,0.18442031550421367,-12.052580679282254
-3.3875458068711595,0.26219516009968924,222.10838666652054
12.38654285115958,0.22263100366809835,-129.0587303307146
-1.7216192847186562,0.20169726784046674,199.54614749589282
11.331887891959143,0.26529262594445463,-100.57707136051211
20.89712765576451,0.144107340566757,121.06591335952585
-17.35085780560443,0.18516336723721916,-109.88298356462964
-12.35337465205368,0.20115934831282856,-158.974344488794
-10.688757646835896,0.044485544508060415,-24.185060788381506
11.50644080662444,0.19957768027687586,-209.08299906629836
7.259502759929352,0.23444426661338968,73.99761515954297
-10.008563661413884,0.16507972482530603,65.65414762045835
41.97830784586303,0.23743414579729186,-200.1151581178652
6.016522349463296,0.21606223247030076,-74.12408193177848
31.994957486124544,0.25274576915725966,-423.1862623965986
-18.252596442232797,0.1440573037675889,-151.1217586264432
-10.72590418100966,0.20850596045326394,-138.02963583888032
11.705869491168315,0.217301173205996,90.25817046142433
3.212774034122039,0.17478497771736515,-193.19305677853544
-22.97402722974018,0.16028828005635057,-260.95901729891847
12.147814317909338,0.23507457144691268,-279.2989387617531
-29.064305493784495,0.18151488978564884,252.25857147486118
30.828026780836293,0.14032299973018886,81.40062072039656
15.192727623201005,0.24744279140963327,-102.65199731496011
-18.79751858956866,0.17522459804937968,-120.35904767054669
-25.87008582713219,0.1980924586448237,-56.27843632244952
19.98779435389663,0.18050465666177218,329.1448953933644
-9.889255368463813,0.18832683590915225,-171.205735309575
32.5269790143158,0.20525741402998854,-54.64510421196065
18.47085903112301,0.1829241428727245,245.81596675768645
4.491691564357772,0.19696003140050344,131.36331794121847
-2.0691625435563252,0.18870240316851336,100.29084658339369
-18.883090242618287,0.20054099504016124,216.696549396474
-0.15117660919846265,0.2014748893181282,-213.3487582886117
-5.23047882186566,0.29124496608077066,226.45483168861898
-12.768160822765873,0.1185670274060515,-21.77396664795613
-19.68373776756399,0.19534540654295515,349.09812890026205
2.4716731186528023,0.199754526138368,-519.8360050774994
16.48377062264684,0.20601799277185232,34.2506362818198
-3.3178735389150593,0.23791481499076747,-101.77627868421253
5.13715658455244,0.18129463543594296,-107.19659865580947
-11.342592672952062,0.16490624918244084,-272.2858437516024
-2.3311368850036205,0.22062351748358006,137.120092513562
-20.315879247209963,0.20272809637491018,-9.310849975782059
-16.754963562358416,0.16999816691409314,-36.46406056320063
6.021686393385068,0.22722854846747162,19.421342791797457
27.50944202618005,0.1943027764134057,-266.2090275049787
17.45888977660123,0.1668544148626282,-361.4186577756673
-8.065836126031826,0.27384752350829933,99.57121968361494
53.87388733307102,0.21032794066813926,-182.68253516132563
3.7733960783349647,0.27838952424089347,-553.6927100338116
-0.5981241257721752,0.14888585779689495,538.1154690583187
-17.02510550920767,0.20939229735312465,312.4044799356868
-17.270733457486607,0.16184549446761806,350.6100424265576
6.8681454427259485,0.18431163068101786,-126.47572933587266
-2.0048146067876487,0.20938989419733453,144.15894934267138
-24.83104233429582,0.10235853466707588,90.23492569326986
-15.571540520323389,0.16012308260301072,-148.46163385593815
12.594840753976984,0.20345460090550563,184.60625951630607
-4.777694109357448,0.19672144077810522,279.0185263183967
-3.3417637047551594,0.23846404357989237,-221.90060024422644
18.758752100206145,0.1981688688702694,-121.78101071405325
-32.3371194342242,0.24228534249046943,-92.6345413884668
31.498957626759314,0.19996967092356313,-19.653494120870967
-3.5722649985227317,0.26382321723498287,-196.73287698824743
-21.86902723019454,0.12541392838284954,-41.01623401906664
31.13981910715639,0.17913233172710205,-282.6516924345164
-5.004524983358839,0.2156554702658382,-31.631458865013347
-2.6629796527165976,0.16822935269842235,77.89109435827748
-26.708476970813244,0.24810563573771277,-185.8118069041089
1.5822001451172818,0.26629756080517114,188.64205910784946
44.37360656401127,0.1378868460145571,222.59435807456734
-10.9932470135887,0.184836159696047,130.82517892941942
8.94211098325819,0.28022009706318046,52.21172858536922
-6.435627447623292,0.20092895974910693,-276.05661491841016
-11.929223740699815,0.1745468288797527,181.1238299610723
-36.372234584071045,0.15082257748344727,-195.1888193157729
-9.694162623521676,0.16567555587302063,-104.51437803666856
34.52571331060722,0.18175379840079842,214.0511513087222
-18.476247487946797,0.2027222436159117,-29.54762537558655
18.58995824070164,0.18782762766050368,189.6363490018601
-6.88904306677421,0.1621230181460957,104.15370564231081
-24.014127309379983,0.1706422461118894,156.08964132362837
9.73682524286389,0.22490057825944795,175.5690036884624
-14.112209136955673,0.1894164154597643,-200.57165733499414
-0.41589685648750924,0.25159933290260567,-20.835039301665464
-1.4448244783885182,0.2555975247823352,-337.0551611711586
-6.692991999573278,0.18903537142192522,125.10424032818652
-19.246578333593522,0.1383519578452411,-212.20728923413722
-4.336540982244522,0.19560883850048055,-105.91520487465624
13.52618946310773,0.2140586322011388,225.64669588962985
-39.766710351239055,0.2011736066752915,-338.56337565409933
-21.098557490800687,0.1918237494832719,83.0335072616326
-11.78429595139672,0.20196461102703112,-171.2925280192144
-35.41559334011981,0.1444327919144223,-117.28826067624152
0.4918067163304921,0.22535698323132852,68.99964907768643
9.77353520609044,0.17932160627764082,-6.864539219377362
-10.216293600437716,0.26389499462073157,139.16375392307418
36.57347437796756,0.12204820650684725,-109.13755617510445
-10.58603269483245,0.191511000714337,-67.39694068180349
6.011682950622513,0.32151145933561287,302.77997317881875
23.74347994173492,0.23489037670952784,245.1303419288462
-16.696396968101567,0.1715243524310358,-197.43560474575105
-28.35119267111281,0.18192881457911753,-36.816080836171764
-34.22101728862826,0.18041156114230947,41.70440265519787
-12.570854123663008,0.20499878797446563,300.5277238315682
-8.187502737891712,0.2596403793854701,-327.2133579278128
3.0720081926510363,0.15897480263395974,-52.85043089036465
-31.255378780370343,0.18250861816266303,233.12624494904532
1.7204302995824303,0.14227893796963464,138.73023191936667
-5.019441459567295,0.16044119312168645,130.40617199582852
-29.16160328526271,0.11383135454234149,-192.1496521075206
-7.774193173241008,0.18773667013413056,6.083510008448225
-12.608034326528161,0.22935057830375782,-46.708786758035146
-26.79626059885534,0.15095929559374272,123.15064575596912
25.951369773101142,0.24088387553748433,435.47907906830386
10.96638404943798,0.19380138569329944,183.41716128695015
3.9140521263261387,0.29908922918042236,120.32925185560204
-0.45464636208084475,0.22164150696754745,-86.52380261642057
6.538938839761348,0.18996186624733188,-296.7801542084439
-13.04171295210649,0.24256674431227218,305.65424536542207
-3.1149655604656346,0.14784310466800235,88.56072839428124
43.56974986429897,0.16565704240641055,108.72500010163498
4.793240661925488,0.1938050123729445,-137.43791563565168
30.51777175534092,0.3192448500238395,404.5164699930905
19.886644361219293,0.1775303306092288,-62.18810107213134
3.1506558001532134,0.2177322512675995,-139.0816375771866
24.65881566060333,0.14687804000293347,-23.814307747173434
6.4804009552825494,0.29054258501678926,443.1274576204337
-19.538274503714,0.24922673306367915,390.6033543376102
12.452065556693,0.2742185037105424,68.76654388555728
24.47945536578989,0.1993734163583176,-348.7396642927033
-12.112375448000325,0.21786440752946673,-129.0941042457027
6.357947569298443,0.22791985975151968,159.77558315134294
8.314594400115286,0.20528465694878992,419.72951391284647
-38.016256946546946,0.26070874267653,0.009022826453475448
-24.842268411020036,0.05825348739129957,176.50344976617413
-0.06136588438662996,0.17457422102874992,162.18053761671348
11.166509618487376,0.2042214075872853,5.352107490839486
-5.419924901001309,0.24203932287339977,-316.57078753238636
26.379811428050655,0.22537093038028866,61.14038943920993
-5.778999559170542,0.19064876187909247,20.22804015507507
32.79682277977627,0.21414684711892754,-229.35127225873143
6.106591507308629,0.2379166721162663,204.13032381320107
-1.4940734665527424,0.11044330469878351,144.13833457386582
-4.838147471884697,0.29740843174348247,-141.81817766654854
6.369459113983514,0.15614565698147653,-403.7709202534475
-43.64332235905434,0.14188645688839296,-302.55160478009157
7.885141553043904,0.1951867006248471,221.65368637167427
29.88873686406713,0.1721488394103103,-123.52973824031714
5.0989588744711085,0.2398087917966632,-156.68616707027644
