-171.0993754718516,-19.655759139892808,0.19479349386269063
187.38326806758,8.566441942490036,0.22416846497200202
-167.1072824362528,-2.2720941402513204,0.18226713322448107
198.99234387036867,12.877990185788635,0.23836804433705955
117.87958930093778,-17.66439134403597,0.10867990902192065
-243.12050713635384,25.204024728689653,0.1816076047926573
427.389282896704,25.41328111491966,0.2120385712183161
-281.22782900419446,22.122717956145763,0.25076265599038855
156.89085843631312,-22.254582593276744,0.19359410838699057
-164.60050147528526,-16.175809539123097,0.25260084602014665
10.820330062158066,-28.54840378906047,0.2976053558545569
-156.56964852066173,10.419531087054345,0.20875384860411708
126.30969926587292,29.282134289831486,0.1835401173401974
-17.929024872911654,-6.878379113413437,0.1657164285845697
-15.860837114727097,-6.200938601842424,0.1738939336465059
-170.9577007461761,0.10028587093230695,0.13772316380371283
54.446833092530724,6.765984218851349,0.16709388974472697
-200.314476530002,21.139584543472132,0.33086712916950034
-6.191896390443017,-0.4757902268384357,0.2524885106964696
-279.95335551469384,22.10509455529398,0.2809976878030286
61.596120740895486,16.49002590862734,0.22649260367590154
271.95129550182264,-19.69472339790984,0.26012222128463386
122.5630638421418,-13.316244639344866,0.20086778214460466
-235.00912116113457,-9.02019566605856,0.23512480364165536
-75.47003168090146,-4.734287850557571,0.14020759820103879
66.54613755210133,-11.22548147541467,0.2338433016761575
-211.5720101918701,5.5501994530130725,0.2204124383234127
135.83841961477893,-9.595735093405882,0.21933309833344597
527.0866243705086,16.005919769698792,0.22162288549759887
-147.98330594364165,1.8841578137618564,0.21395044668198
115.66521684259013,-24.70455851867454,0.22016963713027932
-304.2342359302408,-3.8926949741282773,0.2151122861445711
327.3366294587138,1.4390774072356372,0.14150672110728296
1.8964953457666516,8.527561446833039,0.2248346442543172
39.06482974239082,2.0797436971215784,0.22120216232964704
-253.77039040633252,10.674856347834718,0.2045416257790736
-504.0842252473338,20.517823616423016,0.14578074364052046
164.12074749804154,-0.7425520321803694,0.12606352579527735
56.384548610883826,-8.43666734464542,0.23448474500381128
0.4765413757985072,9.810848053508098,0.12725651687795525
-60.26666842357354,0.4328198058098915,0.24152005324588724
-357.4743675792691,11.00155499431372,0.19858628660800906
26.626701977044302,-35.85941530584462,0.21070258753757548
112.52878057493373,-9.910685319782171,0.15937459550954672
-225.08630408469094,5.258192800954676,0.20029264800411345
-240.93011407745468,16.471720833988243,0.19165129949462745
55.23524512159934,-20.03190965419178,0.16240621131824953
-111.41312404724732,-13.131284910646952,0.16904203615145025
-6.127535499184064,21.672838861373158,0.1720566436787967
-72.43896782544057,27.921510402256757,0.20645510842455517
118.12179543099725,5.530270385319617,0.15068685002409074
-254.67712709044827,-6.060416419921895,0.24500139301856794
243.98524841710335,6.38684966357796,0.18716271714877158
215.86133944666685,14.02116573061446,0.2577898878100386
-222.1526000265543,37.07304406570564,0.1531446348828063
453.80330986432614,-19.983168034392452,0.16652589895951192
-29.80450093008735,10.389105671207838,0.20887592845772263
-189.167666852992,39.72911449244545,0.3013367428501234
134.422045275974,14.05419607289667,0.13578454844522214
-80.42929896875556,-11.627709397873192,0.23917412770619528
74.19704588974818,-35.464331548936656,0.22639172031692575
-102.96374410122458,-21.58333998616742,0.1781117903115685
61.12728851070739,51.05462100700642,0.15625739498583033
-189.6059290101851,-34.0848079859875,0.1701010225729352
-263.01025131455765,2.150544976894307,0.16087573980378134
69.83421552786815,-14.9134222034215,0.21239611390124202
-266.6449461198193,-10.629266493226325,0.1357342406210407
379.11524091152285,8.4791569666023,0.21815601183842184
-215.73087747715203,1.9792356777238558,0.23424329671562885
-399.14778097625015,11.137977917933657,0.2096629092512594
-214.37335325227318,4.927026143323278,0.25350930403931227
-512.2921121621721,-5.2306783185888825,0.11516831916413546
-231.4631279166911,-4.22369543007866,0.23027797349252485
-226.63772404960886,1.6056990344865985,0.26084936643691736
-304.8763602367323,21.793700679508685,0.18451698969751282
-180.4350286937827,6.696131829642722,0.20664902277061456
-153.01403219289944,20.375291064732785,0.17478218752841462
-83.2103110595497,-16.912555828600947,0.25385075996224615
61.267084062571996,-17.163654306079938,0.15780099173543027
60.85797394441853,6.031768711195841,0.30134247557986754
-52.52433256141478,7.4593233981988725,0.2898618837643566
116.40321376870406,-1.1378616832917874,0.252834109535265
-56.802304498624366,-26.66564235195443,0.12969522515611442
-16.973147835234222,18.47048759478477,0.16586514865365834
362.14343011569804,-9.415332857530874,0.1510996345053202
-177.04947597730708,3.039460983536895,0.1897722219419678
-275.03836339811875,-2.2554468762177047,0.1602351981994165
130.50216537802342,-4.95329764269027,0.24217030316791283
129.49782599821708,-19.18256440110955,0.1766674982629137
38.572383834242316,11.52946802053167,0.16728121324589207
-256.245050977419,15.447767623197361,0.19721650125781215
-61.622096301463934,-8.359029207768172,0.1587332762409705
-254.3698092613087,14.567189869064165,0.22605118229968826
-188.23958764082792,-41.29285498312811,0.18939772037134386
167.67190281754634,-3.576513699837431,0.19593022743330943
115.10007169836905,5.983106381083781,0.16606580314037614
-353.20343814169723,23.038199276165013,0.10843884593182149
-14.16160329611165,25.035086210415365,0.17462931873780227
-124.564034692469,26.30033473997628,0.27953335983399225
-103.45489200521835,-9.126851623726264,0.16718656125248832
474.9494577358627,12.88503619242196,0.16288762586196054
16.168992477126444,-2.6104814518408768,0.23412421330874622
24.865103510318697,16.36451114064045,0.1181530882499745
10.28781636188299,17.600969605462712,0.33988955641672847
432.09692589752785,18.46015504380261,0.16626664264703456
72.55434621497552,-6.342003892168794,0.2569058101116145
83.84588003624962,22.457253370245056,0.1660415402033809
92.72862350964267,-24.424630048343783,0.2755008698633016
-155.77354046909815,20.647763482351486,0.27130117785014907
96.03077402545172,6.386316249764315,0.10503959710877606
-205.27310792620415,-0.13749964088436392,0.2097667548737075
169.20368297367844,4.893749568056558,0.17096650229833896
46.70116370198687,-5.283740158732858,0.2246697079974244
-300.1284112971066,20.098549087525992,0.1727015804119421
196.51784072483701,5.67819982495164,0.16193204409553538
-14.22219471662751,-30.33505566659943,0.1264155931183577
-162.36557607546513,16.811797126547322,0.16509380942299529
120.61361538138271,-1.1008818846215505,0.2855234897177451
-92.91469272176839,19.266761330668743,0.15214711781565946
-29.503014187531427,-30.840281440133094,0.2391772220321716
91.80043667090251,13.725121313761846,0.20463241819805025
82.54771972515165,-10.286428890384812,0.2135950698123666
15.927300798637646,23.284169823907938,0.12801301721049854
-180.373446470952,21.55830761752995,0.3130222740462486
167.33884137514985,24.40963824768614,0.14440977111957493
15.08633812293895,-8.31189651049524,0.15241110682771808
32.02522312117762,-4.656444551854532,0.1734603806720279
51.6293304159116,-37.80789073866997,0.16044317487970938
168.65046603774744,-0.9513130563096245,0.03696045038164178
178.69631655631372,-9.471513531493901,0.24304514335859884
97.25043962037786,11.15825699220899,0.2476248885931341
-11.620618913611333,5.750773774194999,0.29681383841743975
-92.99788882895935,6.13750279319749,0.21496070662145272
182.51112886479112,50.72701719251833,0.13513236989639654
-107.21232104196308,-4.693822515917548,0.20952949013774474
6.464064191168645,24.03006959043939,0.25641940846408234
-124.14734167889354,-0.7477789765041163,0.2056149013397337
-53.65925611371287,45.375877954928,0.12123214653542555
235.7093752458038,-0.8915299430379224,0.23955667499092642
41.12697978861304,-12.480698245510828,0.1972476244828361
260.6258408525722,8.351469001461977,0.16220841763519944
193.87319365950916,-20.30045873582067,0.27794626061988964
-311.31638817419395,2.949991961829183,0.1805197951889147
91.37830258839766,39.467495347271,0.19076332145064512
-273.1597134376632,19.02496738828365,0.2921745482870158
-424.73357125006055,9.30111960324043,0.26528317961673187
173.50597783552433,29.084128684106112,0.1955745827998819
-59.15935964476928,-22.925297778821275,0.22009380483771823
78.77084363249055,-29.57913005127693,0.2590262641720762
-162.31118140198683,-39.87600183992876,0.22059618217388155
111.46821451372463,30.544501402845285,0.24433544847867053
-212.2709114987618,-25.07886487024884,0.10844750506967608
-138.35487438699724,7.03521398670389,0.26827747525065515
85.80625197437185,13.214874032758257,0.12527806983827527
383.52133550680844,-31.476882636747398,0.2340230646259275
195.98241917917417,15.605053341020641,0.2537952351890086
-232.9328308042497,-17.828914560905986,0.22855539765731323
-7.29472662698433,-7.734141205419608,0.2856692459759756
7.2037964501582685,-10.200640026333067,0.1621417831691123
-72.26428576243251,-31.15986331289121,0.24559738951564314
-111.30323574915664,-12.189370299921862,0.1816533653849977
-28.416549928752683,29.691294848738366,0.20535723972050335
42.030429628403304,13.5259297860162,0.20612264083676565
232.2091494235302,-32.423263851701094,0.19695912583290398
15.601193740505764,24.381064922198682,0.2510839383487092
-141.42339979841756,-5.768103707738624,0.09046307055234515
-275.1809033245019,-30.124840357352873,0.16470153485590555
-163.31157261220767,-17.27234002427384,0.32057122536065197
24.2430218890006,-3.4902157009460923,0.1316763963117854
-110.99713261656798,-0.9266413260492172,0.15082674374687938
11.455012549603916,12.80226525379998,0.22518672771485293
179.43587141373683,2.20992251570507,0.2301666083081918
-0.07414425739449111,-7.860672178155936,0.17987119770043844
-333.9443908338297,16.22918612107466,0.1927236360210052
-112.03090774880383,1.0559124187778066,0.175074829365852
-50.08277713523932,-3.2517739041728113,0.1827311911768635
-163.09366131265298,-8.348540863773689,0.22006476821187632
3.6980205191572018,13.057121199154775,0.14775732314812115
-70.48097197947007,7.266349171300908,0.15064873397400896
-22.655532531910502,6.953327934897838,0.19323501209970909
-121.68740068747034,-32.34291463770891,0.2613870718788039
-204.8182539989097,40.856112081453794,0.25904693364315523
-339.0755324146962,12.903931356359887,0.1710791402617753
-103.23494421006944,31.784024723829873,0.14922792914566735
99.52930598469862,-6.672937557432848,0.20195593574590062
94.45805149321949,-10.17527076865165,0.15733100758598093
411.77306255502606,-11.928013053441934,0.24017313127000334
-90.44732984485948,15.677707780248378,0.15127538955813336
-372.0643772633006,-14.087547692495608,0.15857511692682885
-266.98851326871164,17.48273399797209,0.16498925377519363
-8.30829858820706,7.087029118270257,0.10916140575132
50.56931417223743,-10.009132173508874,0.2626391128106361
-191.42028309587744,31.396378253038897,0.22161909562412943
-110.82444061343621,35.340612630705,0.19228387047953083
52.12537210873312,3.0966145150716837,0.20299688851098333
-136.61465569563555,-24.351415695900414,0.22050550059436655
-5.484254993533163,13.200167569922732,0.20498868003868048
328.4306322013316,-14.045967448973274,0.14000017294261077
-259.42023972944986,18.759019748791694,0.13603611367024415
-303.97352807526687,16.469410480059743,0.23924317250250235
34.84499222104074,-14.042676251698014,0.1999106050705031
-89.24773511850879,-0.2262900465147408,0.2036432640277014
-154.0117011205999,11.943740494422252,0.22697969202756718
-129.55872618959754,-4.244985810426262,0.17634397720262732
-72.56790048640313,-10.37559396871426,0.18232817677100435
-44.07788769856483,18.5294348044004,0.16142488101841163
-95.89835474815274,4.821594761620568,0.29038086052666917
153.61977626686559,-11.006898456261762,0.20201878237567616
58.152190050123224,4.793501689078089,0.3462243263006566
-77.38173226232735,3.612961455495493,0.19822681956428528
-91.38906059022464,16.040251812315233,0.18392287994231193
198.2848013070039,28.73286630070504,0.3058964846200529
198.71367998463862,0.6464803561237551,0.19951085063366836
275.3085771899748,-13.996478287027367,0.20163948313305274
307.2654753753817,11.552800651052822,0.25918329890133
-84.75512225425624,-10.285407290300899,0.25477997097989546
471.4378753084854,17.889291950933817,0.17300607350708735
290.1774058724041,-12.715753936555645,0.19079339060633224
140.70477299037807,-26.641636032394786,0.19525598414882187
-29.983081857958773,7.060735478229958,0.2428076739703881
-253.38400835144,-17.883395553268734,0.20262230115827956
45.934757696874186,-38.1274808254767,0.13934823159625126
-125.40955707877796,-28.025588178117626,0.1765751947600253
8.816387765154166,7.770246166138501,0.26902273736771204
-159.12694870160118,-27.00942727665741,0.23347236809906038
-18.90394985039696,-7.341962862211732,0.24870681850515014
-144.43916285166907,-18.503256901915734,0.19030270672049102
-566.3584852485511,-33.06161600699311,0.22074512489449946
-148.5426205721845,-9.63801438711929,0.18102725564904978
-105.38650907619875,-0.6703165796494793,0.1843725743703374
18.558121411880602,-2.0939878469325564,0.20213482356260437
-467.65947665478456,-13.526244015537873,0.19717943656742565
-16.840292340928677,21.903544233301645,0.18860984882256124
-86.08653383023008,27.925485636300685,0.0634515015982132
12.870030600408814,5.11111104191789,0.21267182664456008
159.73133666548105,7.8264005734932685,0.2812769680177798
-155.3345801162263,-18.63567024111279,0.24986851689293482
1.759235270472639,-19.167062049112538,0.1802891644021563
-142.38612774353575,-12.512165851265264,0.26289965743405364
-156.4185558838212,11.310776320517986,0.1665962813149529
107.14523775760583,45.39314722979782,0.24540413284803259
-87.9530359780507,-19.359830142953555,0.17452280221928698
191.74725584023787,-8.363629434663958,0.16607832882063306
37.21164622762614,-23.128864937428798,0.13611754422017638
-355.1643113565801,12.361150025233734,0.14497024505266914
188.41586588693104,-30.526851890424226,0.19655354152701593
-294.0065126520905,12.285878558973556,0.24474466588413743
-68.95738595098229,2.178716222251353,0.255992266531557
-46.55832248733865,-18.943665480781874,0.14040549199740465
-257.52370695669515,6.76902762717365,0.19810971829171745
-24.446096939410804,-3.6552470287302476,0.1703460896352755
-155.97773602990236,-4.8908798664426705,0.17762130714357016
98.28250255700175,3.4130412332453446,0.17558133593818354
123.72075822169116,50.992265374067934,0.12399789532439348
318.9525409322632,7.843996641538499,0.2089226607348805
-546.9496250941849,-20.19142525275853,0.2316712460260224
238.46722666341176,-1.0955565059693526,0.2068616030035635
-55.09703267074267,6.256490735968276,0.18156656584032313
-15.047379758612294,-24.2996562280316,0.10099748141198993
-40.55278280200126,-12.751271017297334,0.27399376104316275
-9.425425823080126,16.727822675265024,0.2866244794558984
-401.946971652018,-10.721120673580511,0.19604741698391343
318.89629446999766,-21.705107254129963,0.2658540436121453
67.21536676703086,29.06509002918215,0.2852579486870029
-142.06523584708034,-0.48992798221054656,0.19884585338496005
-7.717681106048693,-11.220046648365155,0.21382773321212295
-55.80235286531951,1.8113315178127283,0.1953280143364807
-131.39815227546748,-0.7741382548323215,0.25276539935824943
-33.86364582389111,-25.517513451887748,0.13577331796240538
-217.20501108528748,12.451430343753733,0.17533036176653827
117.50082064137285,2.1109955151602366,0.23931520336463508
-275.72965161683123,-7.194962150559268,0.23542668017638035
-75.81813680309817,18.074464907179507,0.2705797870828201
122.16426498935272,-36.996507514633656,0.1629827902332692
127.11400096861408,19.96766670903661,0.2878027955124707
-104.47001919345695,-5.161073645320043,0.25003411727885744
102.22022850429018,21.24960537030432,0.23224741222547782
-129.24202331224956,-35.28832118484003,0.2992208662286677
241.63761998810153,-30.409402282919554,0.2058958287822059
-144.55655262316222,-8.474061545832326,0.2514711809413631
-223.0941107803626,-32.36589509731955,0.1404341764337361
150.38598529262964,17.689822683857233,0.22679400543189676
-253.58042269593278,-14.80416396821634,0.1944721164803624
225.49331379561403,-27.841194102487798,0.24218956184671023
-11.350116017078891,-3.249410911502973,0.15172777065785958
-247.52285870082048,-15.545716147822244,0.2204313078862185
88.03612610410818,30.30032408922482,0.145836186747942
-109.41888281990866,9.023823076640378,0.045528761376867205
104.07987418478086,-10.741975150571239,0.20308785116226113
36.12306697057729,0.6436480747935873,0.19781137549799852
-122.0435859385194,-2.9897514044423508,0.2384681997481541
45.049251808430334,-8.206657916077267,0.14975062412991166
-9.42443027012682,0.7436379467954634,0.19545119275119846
-114.91630333521994,-23.371899216740324,0.2272827456080862
-101.37144877452207,-15.5829842351439,0.2095215991445738
286.5851079737193,-29.9433432862267,0.16917380473151852
-84.4352009384279,0.8380600608060335,0.22403334360996108
-165.5875824041818,-0.8215322769172261,0.21178651557262987
-544.3870718677229,4.010715315126444,0.178653797580153
197.31565401424737,5.83470704620504,0.20873464774493863
228.1458166143053,15.999417080050012,0.2086388082396298
-140.53711313440883,27.24255580274503,0.19745772480265847
-194.42153129961025,-24.505893394557475,0.20773315395807715
-58.25333218910524,-20.64693656619713,0.1415466553064218
-53.24126588642595,-7.725572424488512,0.15515519024849092
-103.88210145576207,-0.20044415623038508,0.23970414450784633
99.20442753516141,-4.979948054221856,0.12796759615014364
18.202379700089804,-5.338467175991561,0.25549044891001604
-78.95984153062476,14.070171839020249,0.21704328776157716
-70.99006189200828,-17.718513587640636,0.20259740714530527
93.76614494006307,11.932351820106327,0.18862332085884914
227.7080629086378,-14.140226807429793,0.22767533026525066
104.32243147434765,-6.185120690489265,0.2076560637538768
82.15117621601136,-19.945022588691913,0.2717626588961408
130.31882982784373,7.412436904745374,0.15033734354997347
96.25690984572032,12.538833069152794,0.2719500176370641
-251.12986681451312,-10.021597310335187,0.15547502478386405
-312.3974159427135,4.405416370158921,0.14223824702308155
-125.23542054113777,-8.399159583316795,0.23908317593348521
180.26682582767197,-36.17039173610809,0.2456353517460871
66.58736149493747,-7.630387634212159,0.253728355002367
-268.6253588586497,-19.292465327950513,0.15704105395619597
192.75036544960662,-19.104619800715955,0.23297601905474952
-171.65824126903954,-14.136174187229384,0.1257192268116608
-463.5873631221891,23.723778548099187,0.28613836389398983
64.94531947256684,-12.431471454616494,0.24205305725077275
-77.80006797930724,-19.272124323601183,0.17576561251668427
6.4405948198429055,-22.475838548812188,0.20535681659893934
389.1027839944223,16.457394197683485,0.19221034860974945
105.78013795059287,-18.227738988675604,0.1775601785343861
152.33491782864027,-58.842112140398406,0.1329286119991503
-202.37144894442997,24.020263042646846,0.15657283848300996
266.92054064650654,-34.71445514544825,0.15576054206625356
24.130611068089813,-1.819688016484694,0.11596698186304177
-366.0056675055938,-0.5239270965837617,0.1680517578305033
104.38326250167276,-6.966620417300811,0.226631338242625
121.75306382874976,21.147970062911348,0.28414784173905516
34.536952778045105,-16.24030597042104,0.19451476707021012
188.95137712517393,18.88020219034549,0.1020607422916113
-183.0741549207091,-17.02650282402056,0.1886291506626469
-360.9518380354952,9.624002491665996,0.1607916701801846
-172.30834332217654,41.17391407202418,0.18888788931815303
-64.00738464331685,-1.3642139202928985,0.24948169096681289
51.35874004574048,-26.170037475018695,0.22454507540039367
120.96454662329243,4.821165520195442,0.19748364980571326
-479.68882586363753,26.02743717964849,0.23440714419596037
166.5043806938804,4.195332514610461,0.21315929346990004
310.0393131778831,2.5134043701455067,0.26796605111980476
61.241514242177466,-28.611904866713825,0.18934744939662806
-59.182561958316334,27.856689931280194,0.12911588469222784
19.0813544346966,-6.414085544400913,0.12807933359434454
92.61513442088537,-33.261648792482646,0.16015791371041574
-420.8539946914988,-3.3133288632820124,0.2086634428570732
287.12269768450295,-1.1945084558508738,0.14886442005653813
206.83079071012367,0.48557785668477954,0.14048482555840233
160.6836049676287,-6.384160664481224,0.2464169129931927
-175.14243664103833,32.12246903424381,0.210866153346168
24.31264726282093,2.8180760515664645,0.25385320178062076
293.2626103757594,-18.925583975706097,0.16243199484201598
148.009653939851,23.015005256027955,0.11591448911010774
103.35590187342292,-4.012494308480986,0.24023413203397864
-96.56323571800338,-7.916761524240127,0.20151693739212448
-362.5530124365162,8.37119866994804,0.2157381378508244
132.08214956261565,-17.828887541567962,0.10050653757203783
-175.84662853155052,0.18549387101425502,0.22043899149033527
-219.00569599870119,34.930456365721035,0.16609995408124045
-208.44464623541455,15.436770927115598,0.2341974434955144
5.196569754572193,5.102577774840218,0.3310030651673421
69.40006461748997,10.927773352907808,0.14534465783794726
-363.8069868157952,-6.49561142504907,0.1559831802619308
218.34126343500512,-21.2352100180884,0.18561911706501874
184.2713071822919,19.743154080296392,0.24267429800915222
-69.94604163674514,26.0436722225923,0.1819587084927262
-230.0821049151987,38.13797779684804,0.1899319563089302
113.13901237592687,13.333796773953173,0.15981501776833318
150.92862595055067,-6.515414020207041,0.13239686924726002
179.36696084051917,-12.370831581180035,0.14481441087333147
-330.2241268860186,-12.123608527510758,0.20398689060233574
-95.62130066418922,-14.843241094725574,0.13362408968899792
4.499133341113303,-9.41252759668955,0.221532221708501
-244.27828179516152,-0.05833488413689247,0.22382956659906866
-398.2575218398404,-18.894633425518514,0.1990427147677643
109.3335458371455,-16.347218871521967,0.1783826382867074
-476.93655833584813,-5.478042801175497,0.1706781251874983
225.3226663692576,-15.113180393394591,0.25399945283197994
-136.15491005985584,-19.263391339133275,0.172796718217084
-228.39843642733007,13.18173376240937,0.20883421038459749
-85.23531621925041,-25.47878892913531,0.17166309911381172
127.21323282634212,31.06653986572492,0.226192605444867
-38.62440346090118,-34.82345810165452,0.1506527961776304
75.3238545228381,34.56378475469294,0.24238769758898693
122.1078660010469,-0.3236603648148306,0.1465883225715114
-394.038491566189,33.05645687277386,0.29851322891998505
-21.319319971263525,-5.826088347051973,0.24370901175938198
459.6023612374747,23.215079311489774,0.2371467741775343
48.529091100607936,-7.64575833245159,0.08346711298845633
-142.27549331178156,15.818675730415361,0.24353696045850826
36.38182343785845,18.401764206569283,0.17548770332332406
383.20779574996646,-14.025353772821624,0.2227939943732446
441.0983260793963,-39.30158854739992,0.2620755156575193
7.752632476862608,33.47629490176215,0.17450905700332522
14.602632231064264,-0.2156137941677297,0.17868806195719578
18.227154373732553,-46.29588916589462,0.09686111002801581
-66.67982391002005,-13.054492756247111,0.19166827204492978
-142.65068139020482,23.859474575654232,0.24221185808651585
-60.1932401053983,-23.690144553008068,0.1519430434487414
-199.71563038777077,32.09634426663864,0.23342919194364192
-157.3336411719618,-17.723677421621687,0.05012869393424765
136.12615917584122,-12.0879781390687,0.19532498789751288
-161.71536544575977,20.707701892486607,0.13717500490174084
63.183286410376624,0.39305336743335945,0.1873228211922341
-339.9965642053626,30.584582224857947,0.3083977222271671
-212.46833649650662,-37.835676008122235,0.10496376641797656
-4.6760683438900825,-39.715986059680255,0.24533282497089814
153.43237138270288,-33.343908607233374,0.21466510680369022
294.12250806536105,4.285973792121355,0.23946847671633512
-98.428100406526,-1.7329911189878122,0.10242967161754628
-142.4070546480849,2.1314576471062403,0.16643903584226763
-29.59921427861316,19.678360398013247,0.20272870622514447
-65.05410112664325,-12.333779005259636,0.22241548977181325
90.41537484980628,-16.990900975633714,0.21686917443192766
-60.90092887733639,-3.6973837730595833,0.2875544713352994
-340.46140212390617,15.582074855235685,0.19777704785384287
177.3833094890073,8.768522025271292,0.2334943076426018
-80.02922823531519,44.133161877979894,0.20100477138259815
13.879977850603806,1.9694917934171268,0.2392043648761291
-158.03564812917173,-19.941233440281167,0.2134839577444126
68.89684528009029,-10.665798085595103,0.2251905058765573
-44.57915172554636,1.4313215154506642,0.18232165250898266
176.4451535879764,-6.7485668152979255,0.2782488335588685
240.31028697035293,11.995803734114215,0.20474098763860724
-184.4737801148435,32.80871802023088,0.24486106065513855
-274.344325207143,-15.320595122441208,0.2028559448723904
193.7041019583943,41.87876984131937,0.27841351058319774
39.17121099068142,-51.800152858435766,0.17268230689591077
168.00348523111214,-2.3586086239776547,0.12711105886521434
107.5089908701236,-24.656988276288494,0.16850253112372074
-4.562935352570335,-11.638991778277003,0.12332000616004658
-239.1142471756019,5.303796885613066,0.1616443970188351
-157.10152180946193,-24.010551637604458,0.2590133916641371
206.61639682983068,29.18215077945021,0.2643028214933949
-108.02440403861505,-42.04611107007757,0.24413011184490258
364.01243217204564,-17.501938390172914,0.2208945242157985
-37.0632802460761,-17.009367084925813,0.22846704557025982
-43.31579649282797,21.65581059068499,0.12355306431371824
-50.70388363579254,-18.97844156591206,0.1643987560045216
369.5255600903833,-47.200966227625266,0.19053624947367018
349.31766195591774,17.495702466889302,0.19965250555048514
-210.2943428040995,-30.99670168331493,0.16174056349277866
-14.714313975199506,6.986540875056077,0.2479052703075189
12.241344075749156,-28.919507301865444,0.26539441905269545
151.0941116245758,-7.468844849719975,0.11913430397251507
-136.8448675272995,-9.066637422190498,0.2238452003087359
37.483180871750896,-14.950094925353001,0.25630718514685397
31.024702583359716,-3.1988187461538486,0.23114941897448824
-83.04223368160744,13.64630462357682,0.16975885792031636
-498.7248763322791,-13.836010007717325,0.11552929623430275
-89.15528654846298,13.602715334304138,0.1934775926831543
180.58423529133125,-9.664459357115483,0.09817565093275663
-14.434498502167964,16.44652335734206,0.2178606358387296
-133.56095609963103,-9.705784304370336,0.24375360263628304
-10.524206327808491,-31.47242612954532,0.09410076382918829
99.47251452066445,31.580224347933378,0.2814511695011674
-517.7550531862499,4.022492847430349,0.29257134243344673
166.40657510411285,8.601403282024698,0.21482942729828503
105.20377166863786,28.400155127743187,0.13567472771160832
34.66695898512009,9.80950861692558,0.15444721658440919
275.1546866069005,1.0612883508141695,0.21066551830472136
-5.438004291133269,-41.31275430721735,0.18434129178368075
253.37238575167981,-13.646211519664302,0.23310696792802582
-87.68790478620458,2.1757872365677686,0.23318439954526246
-44.577814500117086,25.160190863884942,0.18361732673344883
-310.27438822275684,-13.441906389099998,0.20811300402956662
292.83852446644613,-7.215381199247811,0.17566295427565637
-32.66465923564857,25.305120093800575,0.17663772401540692
-0.7223564292924789,-17.780109385195836,0.23457100522931967
-113.23267097876841,-7.313410147809156,0.19566387481396555
-100.51634551888017,43.21623236178746,0.18005677659925295
-138.40662096279098,-33.74020934986534,0.16071627678256906
-12.640468517759992,-6.112349727135915,0.2418873744256744
-132.49413884554932,2.994935536482091,0.3179055102493025
423.2733467775701,7.111736346867446,0.16033191243193176
-203.82703917062935,6.292164441808375,0.1604916430591991
-6.464938731319644,-19.446968615743025,0.16814772406399275
-382.60005101658845,19.732537019758855,0.14628875957772774
-171.64377336365655,-15.531678147903092,0.19104595867420265
-162.70311095215732,-9.778466294231235,0.11101233492119528
30.90851384910211,-18.459272800330396,0.26982348981358006
111.89596016926745,23.438592506213446,0.23232914375030728
461.2436241180354,-3.0296074847328187,0.27986250467768964
-27.707049227822672,12.666882165184186,0.23141751739102884
79.04331785642039,27.399812536100868,0.17345469333433608
-307.50909938379,18.16747990281895,0.1830699369323475
20.459667498005437,37.855317862191136,0.17278643444355624
115.28387647902494,-22.446323555667025,0.1693419775755032
-12.635440486330344,16.240309907443372,0.22435376520503048
95.59300432862423,-7.180495486559266,0.1926456547401894
-115.14833622777721,-7.195759771038354,0.1996802369612839
214.1812294798536,4.57264212346966,0.17004627345747036
139.28976483897165,30.89076771729458,0.16308351569226645
42.60902883095659,47.76312089716008,0.2850269204099274
-134.47391659378042,-8.005285685414513,0.18101308991343462
-159.72599291538123,-0.7822827819487939,0.18016372726003577
8.657443471668854,-19.355910697345273,0.27609471361592525
-130.2981926141164,-11.794321732622162,0.19128492815175002
-193.91059475043983,-0.4503131767310276,0.21353129897450804
-143.7349393571993,0.03427190756395842,0.25418283804694697
-192.87172389245853,-2.0295499852411094,0.1771507153572786
-128.4139573573473,18.234528366668165,0.28554286014404384
-63.326687062340504,-36.342142861311075,0.23376982077979824
55.94377265460437,12.177534516090152,0.18699479848709036
141.73985533530129,24.30516402427823,0.27273561175432304
318.14108273196945,26.009985636233836,0.13112245654194654
69.17822392351827,-16.921811062869757,0.22938921746396207
64.79858367474131,8.062714941808853,0.17189487209653787
326.0226077490143,8.226371707349992,0.20339081993298128
-119.8555922020662,-4.120216921499607,0.19075305989122537
222.83283418484018,12.525529405944214,0.1302500327696549
-341.1104894963583,14.639376072906254,0.14488275127055472
0.4808935376825036,26.86260329146944,0.23715762915159125
32.36369106020942,7.837807756212536,0.1636210786946443
200.06188308408505,-47.930297451945314,0.14150660701259504
-55.78308911389638,27.454068731814182,0.11349801884237835
83.11932532860614,-4.523258916228569,0.20531191061265194
171.59818247406963,-10.246531809709882,0.20144545363536717
169.71441940071063,-10.895936851655305,0.2524603188041564
416.1954088651672,13.457762559928685,0.23782053786237028
36.459238058568225,-5.641773660310659,0.14971513601194072
113.19648647067093,-3.4073367574669957,0.2520498994656757
-237.83906186021593,35.15657389193184,0.09898264923137537
154.82485569623998,-6.901199319643837,0.24051471422171355
-255.99278388559807,4.7137313830750225,0.25704112943327123
-121.9350620328081,-40.22099136858433,0.16747035320340908
45.355875601284346,-7.302144618186057,0.26417880949886774
78.33698169194636,-11.691684244053702,0.19856263409721617
177.3146138744252,-11.936433677053591,0.16513340010691757
-636.2538192314198,-10.44446271788788,0.24962110879527868
-144.63518569324333,24.70076448572894,0.15174539334184436
16.548083885037673,-11.583782119413996,0.14012583580702997
9.540461553187452,31.34239880485406,0.22836361187754015
287.8988672619817,2.8278924034826898,0.28679414623831895
-116.97717418509788,31.621458882792815,0.1779338432797745
-158.79390530026143,-29.32473782923189,0.2223039995563034
147.49394331409658,-3.057915948931801,0.2352887485289118
-45.44834246320069,12.638844331710988,0.2582439761811953
432.0296702988412,-11.123935615895155,0.2338385710769833
-226.12298705840152,-10.75781929498245,0.20550053476252766
105.31858428453195,-35.300367468466234,0.2089264618251277
70.75444682451185,-13.980733234180196,0.27094630745497883
0.2361334499613728,-33.72478399271223,0.19846733748775924
-423.8218977651905,-7.793989133818647,0.18594044606751448
103.13892516267448,-26.303934336135725,0.17170231718555085
-195.76729099790055,-12.783861855782861,0.27542703241948724
74.12960777635332,0.02596236977032552,0.12220048844211374
55.073868483051356,-0.4277926664542989,0.17880649875257734
-139.61266363613078,5.6825203764914765,0.2142798405442949
610.9049884189772,5.093354182400882,0.25765856923431085
-305.4662118094138,-34.458169963367055,0.19564499308158576
-164.58583712861022,25.53906093091065,0.17154568914676882
240.42454194047744,19.990486311648958,0.2831886359675734
-367.22600566299934,12.954498110470261,0.20009381898959794
146.08559748670083,-15.103658373282297,0.28581119681449485
89.43050733893917,-23.542302724019045,0.1457726348069695
161.54468141442007,-25.154676470555582,0.15731478264509074
152.38286623226483,7.323810104486891,0.31772517852102733
-304.19675224273504,6.137074266941905,0.15792107257888677
151.4612020692858,1.6480519407368102,0.16192216984598473
-21.357325429148556,9.74816900186179,0.205673056330068
42.345788104403304,-7.774876452831053,0.20712582748677086
95.22236014628676,-14.82874950487497,0.21056085350879927
368.29945036714884,17.94990838846575,0.2428456275056301
236.0089008410406,1.2483677726009377,0.23751067038621645
320.285330504942,24.811865138307464,0.21502517738703947
123.78923351986855,51.3755474233332,0.23634264871544006
280.53505732259197,-4.357277352112935,0.17192634440782412
121.8706793343044,22.375525890620324,0.18617709862316728
-322.5248277777528,17.280091750241954,0.2115889064754216
176.26537531186113,-35.45456355328427,0.1534831985857675
40.61623766282912,-10.758092654357334,0.15498108900962695
29.640740435954644,-15.50816292338953,0.26289044845607545
-208.18159372158647,4.915422271834998,0.24721780019956016
-163.25672368002503,21.705052083714587,0.25663781110391654
149.60965026891247,-24.74337039729402,0.11340105126816075
85.87672267007065,24.23563828634173,0.1727860740775743
63.253772314635036,16.98797378188671,0.16423671423111494
-113.06789537015254,-11.63800627076867,0.1973667142892713
245.30349562281967,6.380249740919649,0.21117576051885784
242.4004919229755,14.350695831009544,0.22847964829430467
250.80803877555576,-20.65527219306711,0.22711180373705353
-0.7099989111551029,-33.83478328015526,0.22265558526219698
-201.10795642058514,17.092555075882835,0.2513637475870902
235.89531676605716,-0.7780483993838052,0.23790993514139186
233.21659602029587,4.244398459138321,0.27397152965376714
54.24194142170504,3.145523246217643,0.25524456517584104
98.37152312767952,9.070925979309008,0.16617668813610492
-2.1813699279008127,-2.5477583562951,0.07827980516212614
39.330498269000344,-9.712821219938903,0.24575991961695362
155.03002133933217,-16.236908647438728,0.17092879524756094
28.22381194973971,16.43860292561537,0.26481740365823747
91.35408052415647,15.81947427886969,0.20909232436511846
-52.470540141700084,15.250156099628365,0.1389367851020935
25.964802051494075,1.6405137548581488,0.22578902026736153
-495.4685936433225,-3.7633636191963604,0.18691867068246742
-6.09317525842147,9.647822172271978,0.30475415269168105
169.932741674269,13.966970113849797,0.10605415453887466
28.464156257789913,-15.24223810288613,0.19905392216589932
189.2422167308555,41.816103043577215,0.18990652099280014
577.9276471822028,4.236705165962486,0.21632843126272627
185.75995843434504,6.4929891159157735,0.17517577848797933
-406.99491287586966,-6.560525805680993,0.12745336945851232
-7.33907490251884,-24.9389556826827,0.21268235041390285
209.4007777625418,-6.26588908500409,0.1960962051104758
174.20882969721617,-3.4891476023367556,0.19051259725944666
-269.59122989448935,2.6719119335796586,0.181113863175545
53.262649207147504,25.218331843060348,0.2494283715607533
-4.142705343327998,3.9722209489133316,0.27993093384466655
199.2162469632465,40.08519770796502,0.27436865825613693
143.3993072458006,0.29049479588149574,0.23114668580826675
280.9520016667665,-42.212977313381316,0.26923598923976577
230.08383087759978,-5.012595808848829,0.17537244931772203
289.888040855575,-2.494822873686172,0.21356671026647284
-189.36525083479725,-42.956530299653025,0.14104293417197158
-39.24029774439381,24.9984424073163,0.20425272044214515
14.652895075852692,-13.680501750771414,0.18172713160027545
107.82057584858242,-13.25039692673759,0.17703625039165782
17.59897004615535,36.25111092842665,0.30825631604205694
-255.525840000356,-34.67715689250818,0.22315627585951037
-356.67599513856385,-37.11235691128663,0.2738608962231222
445.80640055308356,-42.878570282360826,0.22886956227051988
50.00968893004985,7.179190543651269,0.2499671218986806
3.404599413388665,31.757913609140907,0.16579078389300825
28.991356979569755,57.981532683702525,0.2587164349328874
-98.70288121492847,-21.425371262036563,0.2718014164199736
106.58944447553755,-27.277956693272568,0.2135468357385186
-87.02796793894822,-1.8057445501214062,0.16943960750496856
117.58177215205454,26.18589674735922,0.20610362204901156
124.85420185938851,5.249434404318228,0.3324712458001131
80.14597783939202,-1.1265741385055261,0.15525997782222556
-451.43474201038384,-17.220405276817054,0.1910994400079055
-66.16935947610233,2.8658507802975763,0.22506253291363576
154.39780732666912,1.5104889661292225,0.2398796670798105
46.6901465453863,-25.624502085721808,0.16996601983739762
-356.66449028755596,18.861931220910176,0.23354748988896695
-115.10010522883616,-6.441578231969767,0.17402124027180524
-50.15860545461438,-20.60645044438434,0.15503077787416983
-439.79941117461834,0.7570401759326085,0.12184178532636024
-233.66148730048172,26.614779679705624,0.13771731233091933
82.61198110526328,-22.91820816164266,0.13161267280870165
290.9709222459429,11.976948957455262,0.18658229271823545
110.2844172898712,-1.993112809287718,0.13221238962214021
234.29614952616356,-0.1257482414152728,0.17233001751524488
-46.875822321216845,13.694486021533672,0.1618423659029138
-359.05586970050194,-20.73596658544544,0.1727879299037528
-154.1718936039756,-0.28802985226211153,0.16211926358768475
246.39543115087798,19.5104991994769,0.1937398205276981
28.57007330843389,2.5598807137140316,0.10275949523447686
335.8137657473674,-22.510965910369794,0.2353953444470055
-69.91286866956197,10.169526964401303,0.24809107629440938
177.24260594193245,-2.5087509643737067,0.2661536636397378
119.4923902048443,-23.89289694697718,0.23961418913684399
-9.289656929283934,-44.352892744128354,0.20587028355736864
213.63847669253585,-6.391209204983166,0.17711222142206878
-47.491447156228965,-0.841612334698033,0.1843011665658401
-160.93137786116495,-43.90592018898917,0.18965108139026443
327.8385900632794,-3.9844709669794254,0.219673950961135
73.11494026949099,18.451750264175132,0.191700958265238
328.73752796701746,18.24293794018136,0.1900617069770907
-164.19889976248166,-29.17705586708207,0.20991344803336934
-286.312433058802,14.57201648485482,0.27169620808674577
295.14402843483924,13.572963703368629,0.10163077318084887
-39.15802517989804,24.80507020442021,0.2405467585759304
-336.86449595362956,-8.506124332973185,0.18085755332062686
51.835398388929086,-15.438494101018787,0.1983246613145615
304.5507999120296,16.930470847654593,0.21571338199495815
133.49125001891693,-19.39904149218675,0.18014758961452332
-196.51727795485237,-5.8502320065615985,0.21200532960344837
3.402019609733288,32.44964570559213,0.21377674781402378
-65.57652828244723,-16.892239782086463,0.19129172072499273
74.58755524107518,-36.75065898196149,0.1896821414288868
-94.68021570235337,-2.240700483879406,0.30685991940207674
-154.16013932145194,4.1073833692290505,0.22270920869574254
-64.96797643761279,13.236303601645886,0.22305431988270194
113.218170881167,2.8797009103505147,0.10821863795167963
-313.05865248321396,-10.19312215558558,0.24737209481257394
-180.38051199040854,-3.4721835054219063,0.2061909580556605
-101.77531729714215,29.704612518799863,0.1840618238016093
-218.32850152386558,-6.338804531661312,0.2087429594830997
-250.36294491233434,13.186113548906127,0.20314073439806588
-212.28406043497992,4.149958215865556,0.19652844178657364
-9.211593317110916,-12.086092088030224,0.24142323113908648
-96.43193227009664,-5.373776703790164,0.18863260154093464
24.275316993790838,-13.272833709237819,0.2623608873012511
63.25707052076296,11.608615311470096,0.16871983326127718
-4.506493087472028,11.75107941829623,0.1578777406368046
-0.3989279151178432,-17.773196535210644,0.2279536673021665
147.27158447568485,11.541707775643479,0.21480134298561546
-195.48223805269453,-38.9983452522875,0.12597194610229626
296.6700627762517,14.473737961588478,0.22937210396048915
-250.1846457123749,-2.4892929990931525,0.23492253053393683
17.297141495768063,-24.75424820408795,0.08269045356400334
162.40911825561471,10.166566811840088,0.11124611630530858
241.79048320703123,-2.260992368132155,0.17475875152567835
117.92566916701182,-10.722494185866424,0.2175256678525362
138.07039218871736,-14.899822631572885,0.132014462123776
-106.15616980945745,-11.677474587424753,0.15699850204517232
219.39955212407125,4.655522566973207,0.22410913880098338
-57.768470339532605,2.003071434027945,0.18790114005110434
-70.83397212304864,12.087934202644533,0.2184748982049229
-329.44431345168084,11.245081169941404,0.20670638870050448
-0.331709265708506,-0.06970026307293019,0.16312235739397277
164.3663767900348,11.45453805518974,0.2474901802376754
-253.46625323054525,-2.1733715650059695,0.26000362776252695
1.0840088516300441,-27.561099088449183,0.12307324025062392
130.6138466330752,5.323697903400126,0.08258451802623151
-187.17614751681896,-8.561868983918115,0.17899487131983188
3.5252413310640724,16.843069834182295,0.21653474102455406
28.07976645495245,0.37836846668239343,0.18555939588533865
44.89849201603572,-11.473879575604641,0.23428184925320364
78.23160369433694,18.957717085664466,0.1804012432878796
-52.1521756231384,3.6062250192213847,0.1591494762432359
-136.1245890947689,12.01720185189739,0.14222988590226304
-373.87367062619364,-26.27266622700869,0.2207341437600289
-114.91802527691044,34.012762147970925,0.20598436000267473
117.15358447944946,-61.40419422303739,0.2326629704158757
107.31977517300535,36.215219905268,0.18893864399636368
-137.6506221418091,1.2585030909917418,0.18758252199676526
-124.55651322964181,-22.776147509308945,0.16054669136264443
199.90295620923936,4.7247916938337555,0.19077208656299208
-278.32515194735606,15.057021985124559,0.1634905515408371
121.94160890376028,-16.380238883215327,0.20366427856184519
208.56860144163022,-9.989510346873361,0.21350193593467942
-433.4060607099024,6.298036535810175,0.15862983789625407
-6.8012161512291796,-2.937412628366986,0.19344971746432138
242.08997386218155,-28.58898037208896,0.19114459444006238
63.68207471257217,-14.110515500109775,0.1940347587999114
-462.1832308800137,27.475269873798034,0.13525110401257073
-395.45186231198704,-19.980533426203635,0.2004145465465221
-227.0759018278227,1.8934540362885097,0.13677118266503596
100.7911798306852,-0.9726409042103132,0.28163413620537403
-379.2714502440935,-45.73297817010178,0.1697822883363403
26.30394995995165,34.73165886515932,0.20951762012425612
61.6451738911307,-0.7389599821138395,0.1542673434632454
29.704764183719977,-33.43077061510825,0.08445631987509361
48.54002615115639,23.12442673493605,0.2171405418755687
178.16630589695347,21.651710574726664,0.21614862199283902
116.90984887022418,-39.53133199134102,0.17607129265768084
152.72391271828468,-20.160771988887586,0.20947437680292402
-6.955485056369345,19.39755536451755,0.21130698619149715
-106.3701983805194,29.173314370684558,0.15688989285883032
26.523720328865902,-21.606130840823795,0.15924352197265013
-242.12037326354468,12.95709929032862,0.15057540438587352
232.39356530436913,29.552690238962192,0.1848292128696748
-2.262182786641489,-13.920255058213089,0.23295027233901075
40.07716973342801,5.2400456800678,0.2718075663392705
549.4579993046308,4.547863954640357,0.14108877132278824
298.35874698498804,-28.834255860784587,0.14712024098479887
-162.26163742222639,-4.8153072124998335,0.19354724085779604
281.85462387208514,24.03391169533974,0.20775639840082355
206.4054484045787,-9.396465541921339,0.251115397312802
325.0132597675392,-5.681292969391079,0.21340482644188438
-66.40565778065897,8.75249770837803,0.12404417411923759
-56.137119978644314,-17.918250246842327,0.1928259812764445
-99.04921335300124,14.776974288088097,0.19871483063049655
-430.0364066219668,-11.67292885656776,0.15098768519609998
-247.69708367021838,-6.513747881234861,0.19324847221288807
-32.3883258294757,12.045029167715029,0.15491277521519525
-242.33252542179736,-0.9446211342898838,0.15763230965370867
-245.93613313803314,-29.9147732590505,0.18949861993365663
-107.18798462667796,-20.335669226065868,0.1487996391379846
342.5198996656099,-42.52291775105731,0.09571693003944415
-30.56582148894143,15.459735292103982,0.18495904529628382
176.5134150286988,7.907421893979411,0.2278183652936687
-384.976529833711,-27.45672810940546,0.18099449667585066
87.89706014358877,3.824057157385592,0.22729624704459883
-33.52673843668199,-6.677503374811916,0.22130623000604546
-97.96017679772547,-7.975450875888814,0.1582839327204502
-385.87130850615506,22.530733985928183,0.2031793462888564
178.58289558830086,-5.777159158174708,0.25364568465028453
-37.74699721418453,29.30449636327229,0.1840507957291083
117.86818216947607,17.61460380258866,0.1673419697371996
-410.83663485527507,24.483613167715852,0.1870387768819448
-314.72847914081547,38.996435642884926,0.2077843499160964
-88.48658452552951,1.0331733070306308,0.15442715647131228
-304.0554256382869,21.001375209898107,0.23189911640707178
1.4698335700954543,-0.8663911203217025,0.15983917710411205
-72.13787103712383,7.7874937828509445,0.18821802947645994
-62.815236051804824,8.090271926865922,0.22445082550787604
98.10922774986095,9.666479775268593,0.16391001375077172
603.0532318482624,-25.427023683145038,0.2885904431254066
-88.91700637417405,10.072446700782955,0.21952747444896953
-253.38794160884018,-1.9597665972333078,0.19125988333222854
-158.35500566479516,-25.068315765207384,0.22836536766640977
-212.53820524873862,-29.091183761765393,0.19812974170022404
127.0999346349319,7.60510425394486,0.17472727837141294
36.93606274191849,-21.783380713191068,0.305929179037293
52.73199935944752,-15.283161795935062,0.18130721303885539
35.83236460420127,2.5062950269887163,0.21223353246293641
-20.760383783828072,19.225104654195576,0.21054745265924732
-4.332405863365056,0.5433770537842484,0.2200114349969292
-318.25484458958135,-12.898341925841274,0.12506259352403615
72.39093046504512,-33.039533301713,0.17615540945319938
61.50768152884619,-25.243395242705972,0.2014456380739628
-448.81119447486117,-36.46040861437119,0.18926207664724787
108.68543646447608,0.851074570668393,0.23973717986737672
288.7198219253777,-3.385634467107985,0.12138570894941181
217.41811418414437,9.355371070303192,0.2600804782059409
-189.33515946326088,-10.56065588702637,0.09828938276591288
-158.25220451389131,-16.341649101861634,0.2063787190789784
-455.58681090680625,-27.97657450592943,0.17336531879496703
123.15377574860571,1.3194598165765865,0.2716001017912161
-14.624336343108643,2.7579221555452267,0.12510321025552007
-62.75013180388969,34.79094986391785,0.1737972261019889
103.94874068611118,6.193597562836488,0.26539974571532327
-2.9057326018834995,-5.144708144446888,0.16125277773783045
-193.37203753272235,9.514812954422158,0.231113074289432
2.1554586930228976,-7.445600256253702,0.24779968978346453
-101.51710999835385,-18.08129292118983,0.21638382246776816
245.6898885013691,-23.230451176480948,0.19988631469321444
2.1748151403380325,-28.214415376471912,0.2030239734520081
439.2902197278861,-23.469473883220683,0.24885869690768037
266.8868745585295,11.22652432022129,0.2538704478811307
-72.14206966823242,33.3045678362963,0.1579611863009182
389.76417659504637,6.653681391010185,0.21530086274693902
31.42702942522159,12.795197812283403,0.19251414645677545
-401.2187635707425,-24.137766777039104,0.24198592682145037
-16.837488492823905,20.471890622730218,0.19224607602522145
-48.77767549984527,-22.864760585816303,0.27935729342706467
-14.39686617698768,-26.257604702845857,0.19417486156932115
-32.83519161624085,-28.021320470775603,0.1873780467487043
78.59713777629945,-2.0888045836714366,0.19344469430740036
-218.0715243704825,-3.7361369015731762,0.253106719555658
-40.10284897026007,40.47997579973425,0.24922518947526856
