-30.590372313818442,-11.587413982075628,0.22154104345167208
35.05154978638117,0.3255299474636162,0.17847370082787356
40.803379586729996,-22.51428392109174,0.07892591400991829
10.896313805909266,9.220956271441104,0.20223591918520353
201.0460375978715,9.086062594115083,0.3102958127123528
-149.26501970601726,-8.878286520022394,0.1925800280094207
-186.6231931472047,13.791192978073703,0.23383618907199571
60.27701953038165,-25.45086945146938,0.13875248661659742
-161.34809328012415,22.613953394185522,0.25583611061880446
120.87752255350057,-6.465269702040183,0.20713185074283744
48.77868600500565,-1.003593670622274,0.15572441024393166
-187.21832628031456,28.59118967138833,0.2201467391318415
-207.75248172169927,-11.571634730282696,0.26289791884358826
9.581979466432527,-19.373104867689154,0.2784363553313771
1.6457191822194726,-53.23573170913636,0.20692980216471157
-44.318826955226434,-6.992816825134273,0.1980617034858846
126.04220212380292,-23.64471210769993,0.1979952690030902
-78.7778831927527,-36.21620017523332,0.20684371158652207
411.80314975397704,-42.82028380031097,0.1572625945491693
-7.6411680902236325,20.691470347962316,0.1555304678645223
184.38627953516976,9.066097697522489,0.11946381741514335
150.12940276320708,14.033459575927345,0.17917964874564574
31.423055365810594,-13.636642907680748,0.39223961715260225
-119.15568511269667,5.274274426865555,0.1568565210280607
-438.01228340910353,-1.850583990893464,0.2618771680882045
416.6040959352353,-16.28711903185948,0.2609929012730734
27.280494746101397,-0.29647150091327107,0.19278506618661234
68.7759207005431,0.5716626546112038,0.26504214360562384
-21.102170212389577,-5.390678634587114,0.1804547095918615
-228.5147093912681,18.546218172352493,0.1355768277181041
-184.2842630287313,28.58383102135793,0.26605727232439114
-137.92812794753175,12.996572513506496,0.13905756808165493
-85.99909854524755,0.0030247993580144973,0.2301982552592708
89.56194163273803,-24.532121078226634,0.21238480159116482
154.14203012966902,12.957862059691397,0.2545199430539608
-54.26885653339916,13.635278285229216,0.1754341446795293
15.113073835893731,27.197917735626717,0.19286092675489155
-335.853726771952,6.4239962318325405,0.25182565072376467
-144.9749380762754,2.892538248262986,0.17639851990993904
19.136845012742906,-18.287583670966647,0.12429648988840253
-84.18173442232452,7.683545091642472,0.2110408385599939
-90.9540754274341,27.899366077050015,0.15022285630359558
-15.4927325380667,21.215914027505086,0.1750323163745664
-152.5914552526923,31.734000492970942,0.2211109350405817
180.76640258164022,21.212375927290367,0.22983141487622805
43.68036996941772,11.57705358672974,0.2155385435640659
141.25390434477444,42.84119340507878,0.2960253907397875
224.38412983392513,27.297048273204574,0.23292897408445323
-63.60924599469914,19.894569442628573,0.23600960799432966
-41.40986019920916,30.675810975431684,0.1981229692348517
360.78169554738963,-5.858920334572044,0.22201248942728466
-32.184979584814535,-19.487908795301877,0.24723594868853752
-54.694787044857726,31.991804404600536,0.21998168665027804
-251.5816391940815,28.800683068517788,0.24746573987603318
11.76450550197612,-19.100427392473236,0.22660629342468447
-175.05853710859816,5.304942198497697,0.18799629181461014
-26.37490069055707,0.5745767611580901,0.11686935861509078
-108.11060133855592,-10.65387857040317,0.08501593877275414
-208.5222339264719,-29.820730154534324,0.17415385525900545
-199.88302793506074,14.679138164235102,0.21752158221903434
316.44017052367633,-19.14771275821038,0.12624781670786384
47.014176801545,10.033239541347374,0.28966873001672905
190.66408746984916,-0.21670871198770691,0.23198620593653205
81.66144503362248,13.77521079096136,0.17249260199771563
-91.35679763991581,10.999114828443568,0.27012766031994095
32.0525354263039,13.922418961020014,0.26362245507893467
-133.86987252204062,19.497462382495556,0.23587359904958066
-218.46880870683205,-7.0972453046909045,0.25635096954008174
-104.99354060341189,16.499396487353998,0.2698897473763783
-66.64570034720525,10.24381377237945,0.17531377307020982
307.60120614825246,-15.05279068012449,0.25048713070501005
-69.39287615279223,-5.227230946740344,0.2184280375801415
99.60565213935084,-38.788081861265454,0.24328714351426356
187.54789006060295,-0.48790740015384326,0.20756020057425612
33.424251480331556,9.045501650367282,0.24694258584337525
-188.9857853719063,-38.055644451414466,0.20335819188798432
-4.039654947227754,2.441821361904983,0.23664634725807532
24.97852213808972,-9.059194015875828,0.2349350972117695
-143.08575933302146,6.278373946504629,0.15095962093272738
11.727103674386548,-6.002909696420595,0.2241371155760846
45.67460626138897,16.43453986315121,0.23973346729261374
-248.437496545782,-10.269116662713655,0.19535267442642518
73.38557520364878,-9.43027609649137,0.1898644984597505
-25.532257337788444,46.97495953114823,0.12129357727457002
117.94411181586419,-2.624725721958443,0.23748788153931746
138.9566827732215,-6.19231881480692,0.19754191945924254
119.62690995657763,-0.4556380125085414,0.30621385050690453
-4.526895841073015,-24.54598057316786,0.21325616364795488
-82.78399360354268,30.726057209894226,0.1855116852940812
-110.65409509285536,16.420438931351853,0.18320782376222583
-178.33445254662666,27.40675500504773,0.15649689536300398
-55.5754116274685,8.248543464450334,0.2011367208049439
116.57673059211811,4.95808251627926,0.20961173204426195
315.56160418561035,7.538030759330885,0.18346697107449295
-16.97906128642445,-20.930739420188928,0.2767418011883098
-161.18568936959014,-34.18794099027143,0.17095463504353428
-406.9769321515434,-2.641736779431726,0.21571307278851945
-9.050551191395488,-31.208883311723365,0.24390706772509124
-140.71770151988622,-56.23766898308304,0.17729702607099723
9.849047079520263,-11.790210448148496,0.1567530516404053
91.36173511483882,-13.118024096558447,0.1927839955726824
339.7307309705563,7.083434957564093,0.27639615096253484
81.99276039106542,12.328957930158413,0.19859021573534366
-121.69157683970246,18.731434929619674,0.17752056709891
-28.046501109792523,-14.512470788622892,0.24471725962496066
132.24913177923534,-9.491319556889666,0.09562960149949427
-387.18180427384436,-8.928038566312576,0.2542764262054946
125.51870109786907,-15.30787279871464,0.30073761271529065
43.690806818639196,-16.603163936593216,0.14770432835185301
-240.37220820142355,26.163530152851635,0.19401322853992625
104.39995652213983,-5.882501152438753,0.22658458189687017
15.68818041156492,-47.968930738597805,0.18297640153017763
-97.4967023604112,-5.603526447995202,0.23406610104668724
542.9568354386582,-22.19600228041071,0.18507854428560072
-170.87343254673647,-2.5899132802842257,0.16436414833686044
-26.629142619185835,3.9059467102435788,0.2463819459776631
-20.38782674121179,-2.7543603280651507,0.09185055558923659
-82.75561724151972,23.793181991429794,0.07199436102980752
-242.01155530491,-40.109190340963174,0.20331422643968533
-310.0402991140216,-1.2615266481830865,0.19015520098272493
-112.64045344240063,6.2359900476879515,0.12858522725271399
-32.177569426005796,-11.11919842755725,0.16161418974284117
194.75596592020452,6.2496027530781015,0.18311921830680206
38.85240078380627,-7.525832775486209,0.22503284187484604
324.3185639709541,-42.13102525721425,0.1361305729511913
-252.16401279942352,9.00240656454647,0.2155642332686628
2.3363717732722007,34.257245258913834,0.2608937179654841
-237.2007923024222,-5.138851043431238,0.08246618491975961
-105.31557863795169,-16.136461157874827,0.3051036440457393
-170.5325252355159,22.032077004852646,0.1477811955721728
-254.0535260657249,16.26129573049699,0.32111822796391887
-351.72783328856553,32.08882855671529,0.2088010289498725
-313.037572003759,-15.198652190079082,0.2499096745487933
181.83013118453067,3.5735759150045556,0.18239074871795016
-393.1771654491748,21.406471874265026,0.15489165318870657
139.0370148221333,-0.10399855949315266,0.16811415273637687
-321.57980841782836,-6.376269734620323,0.16956347527164606
282.416441011364,24.99298518716084,0.1838364335788452
-42.241796495773954,-1.5159545337568339,0.15888118321599778
-150.09536003255326,-59.45593847769534,0.15724287201541928
-232.9729467661997,-11.411687868480625,0.19371899308071575
-209.3958194615525,-8.126681516269008,0.19947884089422108
-126.21489008220496,14.867160405684292,0.17121221506980375
63.09350248195612,52.82798115356116,0.22614889939190694
183.75995212895114,9.308443245722719,0.24485252435855132
87.46816833939197,13.458776634523833,0.1934053902659808
-44.00425397844076,11.793961862248437,0.20857795956964376
-66.32382250691383,-16.910995736733817,0.17500490667983848
16.52133114748875,1.4647563084043842,0.19854421009076068
236.26295158915363,1.004394966173619,0.15782273933311347
-147.58912311111567,33.54542016230053,0.24437442413059093
-123.08119216392686,-16.025496443135317,0.2254851292591957
-0.6663275209076716,0.5721632108581671,0.21488782127994088
42.02883595356558,-11.762216499587543,0.14976750062901542
-127.769901814009,12.18394201391513,0.21191161142450407
-194.46651402968612,-11.87898271503438,0.21948681759006541
-37.25546752536907,14.22396317377144,0.11193134034365104
204.60521907393914,26.995911678292423,0.2546481768784679
-110.95069826241794,4.0451451514593275,0.15252554871131507
-18.97898708128244,-4.629208419443622,0.1704053016575638
255.49036782093248,27.740633202003796,0.1926912513614328
-249.10655560918832,-20.7825356849671,0.20913536550477285
-54.29096628490323,27.364710069008712,0.2000278994356662
-196.53334564865906,1.5875156806134882,0.1695482442934722
-183.19161126191537,24.959444541430273,0.17262214526107178
-206.3556418616945,-0.6559385121522618,0.199850842683101
-329.99979008959247,-17.514277472354284,0.22300417656057614
-89.70484527120908,36.84201883175167,0.25978904866086133
-24.398696423781278,3.2979332146899036,0.16816100891604685
-160.20039133831014,20.982316773975942,0.1885650297536615
69.67571436078896,-4.3814812997588,0.19635208901528128
-406.07352891390116,21.659485329333755,0.2677025250139985
-260.88823313088864,20.48070195342366,0.24783568274670764
15.97321099034332,-0.7155784538268808,0.17073622490143114
21.80591471639939,16.249180450222966,0.17100306488209974
144.22424575479417,-20.8317050846051,0.2539995882587158
-162.5432888217697,45.716212709621466,0.14702484768221902
-9.901282314493015,-3.7433537986973864,0.23524413705100122
-79.21073195278524,-14.29001802776385,0.13881019430854052
-100.85987030278869,-9.44914391582714,0.18389336771815387
-196.693851786157,-14.491791272264905,0.1690505433514696
30.777998962069077,-32.327063696379746,0.23975770722041995
-115.33706912273229,26.24508698816016,0.2569360066636078
89.32084249586012,-3.9549215780809472,0.25470473049203124
-281.0843009623933,-1.1498987300822463,0.19257306063276577
-257.08785502184327,1.8078563040435394,0.18978184031236656
-102.15316118307047,11.240401978798566,0.0547238837447864
-155.49043025850023,-11.370967060038131,0.1020536026466566
-346.80468565469795,-5.3584610551799265,0.15438068997823412
-337.83712667615697,3.7237158474094407,0.23552447690358794
277.3376895803348,-24.885623520361367,0.24125123327494277
-2.517355980182229,-36.38453935327671,0.23460546526250473
163.31256452730668,-14.517174810968772,0.20023793337440005
202.1798753845371,-19.06883949834556,0.14992040956147562
135.52654162197518,-46.805394284404656,0.23488035662174472
40.99182532406186,-22.108523377030235,0.24544072173229692
168.90944255511252,-4.211453449354333,0.17095372903780917
114.15372416040574,24.522436525490715,0.19654629899755346
-283.8495279197748,-35.665032035749384,0.21284722997461872
-251.87366089657095,-18.370500361101087,0.15202734742208193
164.785092178619,-15.623350502170446,0.18058877902280493
-211.28980816397828,9.669320284574919,0.26711454333411283
-4.682612101900847,2.875039436700046,0.24243394848317
104.93061009765736,9.146608834694442,0.14472080196990098
324.6899390616396,11.740188856021538,0.2088583575397817
131.77852896468048,12.447770499749138,0.13264292752167287
-7.910142874946019,16.796676076852386,0.23353583882801224
-55.48832394551786,1.7128842499199803,0.12123403484486595
120.90578368997006,25.845401058660222,0.13092485508824872
222.28501256188724,-42.12404607196012,0.253993820619021
-9.707615694287258,9.289710122957024,0.1596925086232955
-363.738623415349,-47.02950284130636,0.2399031090261188
29.77894900805358,-3.252296998114586,0.17487028966267051
253.50384355304962,14.165123632947342,0.14233403103837228
-23.572576517095317,-10.858979566120466,0.23151368399744934
98.66738251524878,19.04372436814842,0.20259047184972542
-330.2610897382855,-20.446449696705127,0.22183123236076074
-132.85104489739606,26.577120803704677,0.1176672090220392
3.876632677858791,19.723177394282995,0.23051240887344615
-241.91124448581243,-3.950952312274905,0.18061459896109888
244.60069268839786,-26.155902533779603,0.17218105850637064
122.22018309036524,-1.4151138515208408,0.24593575515004704
267.6126076234225,-6.638094706022223,0.2350895241126563
-214.27247468832311,15.086294803767661,0.18465423924802485
-336.88336029855907,-1.2729918431998768,0.2477894041661679
-95.30102964543822,23.044371996062026,0.18565534555974303
-208.78210426498418,21.01291201165455,0.23955058981768834
237.82352625316565,-11.99303652040565,0.2049627061099948
145.84340780128682,-8.545121162574835,0.21541827333001484
177.97771277907276,-29.385288462618753,0.2098875296499986
172.45945995175947,-22.904964454580153,0.12303272644699495
200.96897807388135,23.166815550459102,0.2826114160872323
217.8230522683529,-16.880793128760473,0.18303502948141967
-375.45791699536954,5.328194117077133,0.172864254520814
246.63859150064215,7.450398455001319,0.1683171457650724
-92.31079621846263,32.932165226372526,0.14829609976559
44.69661935406129,-19.08151006810567,0.19861940185468474
49.01752840076552,-2.225161128548244,0.2556398449677549
-270.62455440355706,34.215125961343645,0.17977541887036752
234.19399900575448,28.26318879165864,0.16224483733415332
9.338902156592642,17.302823873338433,0.25334897396906786
-23.021301852892968,28.227658486408338,0.18461212593832052
531.0192643760398,-0.19893659002165165,0.20552600955146358
225.7846448842289,-11.204971717568382,0.12887828773350568
-53.4280986354583,-3.797374186701168,0.15768221702531673
226.03822179841214,-2.3543074178344274,0.26885424612858255
-253.58561112926483,10.076339951605988,0.20667278831515615
-52.479977524773126,-36.06021120321235,0.18024480228073325
-174.41557360214503,-4.7408655402654905,0.15217717842917725
-5.615170163108326,17.201872338081714,0.17182091973886254
-20.144395862183178,35.631475933681095,0.22659680630790702
317.70180188161396,2.7018940781875402,0.24904029056541216
230.05398870713566,-12.674823122830377,0.23239873952233062
-11.954508393025357,5.852147036098304,0.1774360376599677
250.44915667144244,7.125954010926325,0.1705638475752354
-87.21306721885279,46.396586869707804,0.186468493252955
90.79686149133065,-36.74073205385015,0.1423377534733968
38.27330124918149,10.89679615416226,0.22136882701163954
-87.53710433124677,-19.157504603058975,0.12969872605194682
184.74393691869327,-4.3940328196812946,0.16083789581154098
237.38463227328486,18.956293991560607,0.1641560361086477
-257.29306307982023,49.765478443230684,0.2415907615632257
54.945491456751114,10.49151114487242,0.2712291532640552
119.22802541516444,-22.111870367094255,0.2406492465048736
85.98748265911391,3.1034556843872076,0.1834174639202787
-222.83009198902985,33.66533154494037,0.16499836271252932
41.59769657087294,38.96989739132206,0.15432605092776483
202.51894115976282,-22.9566597919655,0.18224724377625323
-73.51448142285662,-8.357500184443495,0.12127223931727404
-128.24903223837967,-15.03625852285773,0.18065323734648842
11.150103397198121,-12.092600741151982,0.27215357112814414
202.4801871214188,-7.075110548869508,0.3161938874917116
-84.13288362905173,14.48228183760558,0.23274042820711724
188.27280387823365,-0.8424631141183964,0.15938190891412793
31.493331447885648,-2.2405585825189247,0.22366009494382802
-343.55344903191826,-20.14925531796281,0.20718861924375673
-99.3855106123637,-5.73174609357466,0.26901897017387555
-156.6784719044707,18.259970240153862,0.2860913135283216
-126.53797202981305,-12.319519010122422,0.24160168823359196
73.99295733067687,-1.143645612698976,0.1833503874293988
-148.12800927864032,-28.175097684939196,0.24093551799475568
-17.27022040923674,-11.826716261879328,0.20486340290097058
64.09420110280688,-8.715247349273978,0.31764880086456915
-349.0606787175476,-8.291102535395362,0.18164939419269688
-269.1784760891286,-25.70902259501218,0.13813108495369253
-102.28924544609472,2.0515820346013247,0.18827586510286312
-175.30775568210936,11.31680352199999,0.1406115596691024
131.13845777261238,23.84377154500097,0.2942842381690641
-113.3997404937378,-13.83761456759111,0.17562772823830325
-181.82478338746208,-11.764424012478589,0.10983293180759485
58.432792264495205,-23.44501972403718,0.21949727591678303
277.83760055448005,-17.495312696032833,0.20659229751404817
-26.01170197304305,14.770720695446137,0.307978393842023
47.76360852419852,-8.173712537021338,0.17484906750619952
41.40361274829619,-21.08566753280934,0.1422425547325978
57.83227430329,26.28848443330389,0.21715821925134965
175.6761866890752,60.31638935151427,0.22696457410781418
-197.9027172747847,-21.883079224195473,0.22866253683601714
14.954201856847385,-9.063724137824124,0.24562237620455307
214.11152374541973,-48.30453044752063,0.16034946908962847
368.2638218377565,3.5568723493212726,0.2736248494557508
373.73335629873543,2.9253563251196635,0.23190348986846684
291.3437554070045,-10.82644245962503,0.2791960971093421
-162.49301308323155,35.54682497026179,0.19254353164900118
201.70398853127818,-11.463334179281562,0.21236042270464997
-73.69334717816439,5.041922780456378,0.27269772321151436
81.58201605571499,-7.7393197460968555,0.29383865829606787
377.30900335162994,-3.2367833049874,0.15750843918223442
-101.89437706177893,1.7760694059447526,0.19947767548228132
222.03637315596606,5.081067239234657,0.14471252168340462
322.8320680237521,15.182413122935635,0.2840694335051316
135.73903006399394,15.78413597197991,0.18412712408280574
281.68330794933104,-11.915490157544092,0.18693287916261503
233.29235823512593,24.46300897803825,0.1515557932113964
-185.32115784990603,26.54565075418318,0.1742127890240037
-353.87915607536576,-15.30492120014642,0.23076946274987933
-168.57191003120747,-28.593202976740688,0.12773921479250347
176.07332375836364,-1.0750441808324434,0.26563374894031194
303.6889736847088,2.3989998491501257,0.16846294507685378
9.781208411584943,-10.641841484698674,0.10859124185012461
4.402511179623684,-2.5311362961691595,0.23427513064548436
-78.23530611586659,-18.003554514655235,0.35514996239830215
-312.8886929907123,22.58127420015555,0.1764142540282069
156.82560787525347,11.628586670355535,0.22976986570950178
51.08840333682524,38.231225928202846,0.17485465493521216
67.64665340227607,31.52031548912433,0.22079919765904604
-557.8249425576378,36.047829082858065,0.1732012904153909
-130.06996423392127,18.379345303954906,0.1279306044203492
-53.88790352606658,-19.458188771876934,0.2268944388626562
144.72816193258717,38.13939701145382,0.18051108767370388
91.86816883060202,-27.10495216478094,0.19444423066908667
68.42847078756861,-30.905753054590427,0.2247365502295538
-296.53311538925476,-5.833857960962689,0.17146446208316005
136.08562044602974,9.234857952238642,0.15480060103068233
40.73837942214658,11.897251065135105,0.1966333176481024
-237.53397373858868,15.612257409440522,0.2659954059263038
196.3007360714332,15.954628381873011,0.18239146812648158
-68.79413359645994,-10.302437665882028,0.16719695048946664
-208.60267409262016,-12.158537272471975,0.14759348773480188
38.14359275828163,-6.480627980932406,0.1624792844479393
-348.54185618404625,1.460856146880021,0.21933437623419508
-77.5291364130845,-14.357696199950428,0.15316561275936305
-97.48928750017423,15.656276728566262,0.09232918437037635
-354.5350692751781,8.773621040244171,0.20998782472836489
169.11381212013114,-6.470357547204588,0.3101696492648049
-61.19085048768697,-29.078893486935268,0.19625513876466283
-323.23089613951606,-5.61223440109287,0.263593829793884
47.307344584627735,40.71164492430757,0.24343647091902307
250.38776058456259,-17.765111406588833,0.19225092296255153
-18.12273780659096,1.227963019346701,0.2769017217574779
184.90846327809962,11.870810511796027,0.20031143762722484
-172.21695136425413,-4.482862677096007,0.14913198599901312
-43.02168298783762,4.066221916615155,0.07001762555815982
1.831443892289381,21.474716407281722,0.25736134990212006
-229.02026120686423,4.164688050189657,0.27189252520004803
235.84172639423525,-8.63218461196795,0.21216600364362265
19.352220841311624,19.324052114329767,0.15855322583236756
-134.34921224343336,-19.778394970485405,0.2302656343343506
55.48380615296755,12.484427790702426,0.14453553373411382
-158.13101994102988,12.198039208981175,0.0858802473877206
-14.668635415307657,-12.958271099762097,0.19366091524799323
-38.6640732627969,-2.1702141249227944,0.20200615768746605
-58.275706190829936,36.95762999200675,0.1427462378256344
387.3746845927674,7.48742078302842,0.12081413355777354
-26.20140808799806,-26.73075442834403,0.1612470323230968
205.807385604517,-21.810607636637403,0.11752243095781173
-297.3857965019514,26.748617473843762,0.24192692411715536
-244.68239209111462,13.67173568611316,0.180316757520274
-296.2361297022767,12.08300439881267,0.08723851357269825
0.3913029484943818,25.38138774290381,0.11645589805271322
-202.31607381087966,-3.210216805612279,0.17976201322064073
-29.539153211558926,-18.224420877431303,0.23153638679798189
-299.5318709525019,25.255053332144296,0.1831581837508112
-264.87716787854964,-22.693547850778764,0.08872247858872157
-115.19028751712234,17.979922767764155,0.23588580807875975
-57.04957340639226,4.644854578744125,0.21560181289284536
179.34841207540236,-28.012674859478295,0.24547454775832542
-7.651953499158559,10.812106813612917,0.21835453596386425
-157.42215192574852,22.262662598019322,0.22308081313160266
217.61808441880027,41.880056062190505,0.12316372118717589
-180.4947672434917,24.485966065414036,0.13787524273622814
-108.19661992282983,8.201662218257638,0.18201582013903272
30.49604240724411,2.2202861442188113,0.23160969447733173
-36.00252067751561,15.844561146963601,0.21095457908753162
-364.76355560320036,18.07293105844829,0.16898974684812285
-179.4048500968432,-1.2582309323530123,0.19341882250753878
-1.0900929554611776,6.336732289431862,0.26509378319390153
166.19416243492262,13.404081950837856,0.19568276365111134
-145.4435093313824,28.876547919264056,0.15816527079566567
195.83506803954344,-26.958408116519283,0.2369460623225989
-208.33481007986646,-5.394687417376201,0.196123743370139
29.718418679339486,3.5137300480074303,0.08708520288155508
308.0652908671099,-11.256949755169401,0.2294596413058742
-149.61629446131747,-2.776190774864931,0.2733204289146864
45.30137292135241,3.238822339392791,0.19574841105717464
-190.913054174245,10.632289786172288,0.2074356152652384
134.16876667551503,-9.267704186974392,0.12199244815667067
-22.742470333595204,13.015203049929223,0.21888428065744947
-185.53409837563592,-60.32352520004069,0.20777583454806386
49.22452292787718,-15.27787905582153,0.1702933210163239
35.2892421880404,1.747121423557497,0.20252563893958883
-447.5994472738952,-23.80500983477843,0.2634879165115548
-281.1841378136074,-9.483340779193426,0.2300983754249365
298.4372136683466,1.9019247671382888,0.14881516648692056
127.56151108415847,-28.73718643963344,0.20776115170617254
22.091557803165962,-23.92462987894352,0.15602158276057926
-19.4791671494655,20.684156382116292,0.2443313220007476
343.82331683315834,20.375908112511134,0.12399213607695232
-293.4392628613606,-12.761576624994149,0.20838525274088443
-106.91731099625277,4.410489197798159,0.24444603261550493
-1.7560082522231872,16.581775598205475,0.2318206329940351
-112.03828345032551,23.088810131754695,0.15926248923886127
-50.0174819609857,-14.754293993119704,0.14343131820325572
-141.06303715692817,2.0260315496844443,0.22887290944866037
-69.51822195143225,-2.6949370195564444,0.08721622297316507
-52.61939583552556,15.930713670924966,0.1973778716636764
59.64197177230409,-21.32827114853299,0.21846168683672607
89.0130439932316,14.4473810119882,0.17938073912082506
39.024454412582685,-4.523458377256847,0.22484016188750672
455.8916532216351,1.3513419110343676,0.2264063473443238
-24.627261661091378,17.003793403630645,0.12688236567028566
204.56447057198176,46.965223539987136,0.2595792982601509
172.30816247975162,-0.3096983482773877,0.20058832815494493
79.32609452231947,-18.758442442270542,0.2429632611066951
67.01890203666787,27.5262194375172,0.16361307620453405
262.2073440044759,11.182294342624354,0.21198413922460063
136.6992766347825,5.2716736373188935,0.2264738176254102
-476.0830448872791,-44.86263122226978,0.306380348400318
-34.671392123827225,9.008093924724502,0.22667348822439912
-219.15229673248535,0.33783434427344655,0.14054190587230195
110.42728996779717,-19.8409241335167,0.22310596718790926
96.48445789230794,-9.345981367710689,0.21717716657689215
-78.15180374085482,0.19679726687436058,0.23105025480835445
-397.9063299578994,9.590969393327976,0.2074025469921242
-379.5985484092164,-1.6312150760938782,0.14373045422553543
131.92396781623032,-3.9740623237576536,0.2298457954468925
-195.01771974165777,12.842300351626859,0.22581803560125122
46.77096344957092,-10.087376583919621,0.23464030465820776
-338.7934992220643,-0.54282856039493,0.22108830678419883
-193.9491548199438,-9.482307019055344,0.18675915560649547
-30.805273782122555,15.010056069496,0.18321511997835374
-133.3797091077885,-12.306221222222513,0.26444232330396555
-140.55628239827794,-10.251110726273398,0.209479587437373
-132.74652744576287,-20.113477024192655,0.18274676319024602
-36.19430591833205,-12.309334871945975,0.10565481636085518
-211.54427510305038,-56.83527507225079,0.23992332152141355
70.98435119557166,-2.6541891215159543,0.22550099378449537
-201.57064338696685,-42.76364830676282,0.2612273979169025
-275.408938716742,-31.53707791870491,0.15625119556443456
43.43933979663447,20.490867498613902,0.1454748571115831
-197.17148317679582,-8.403504252177546,0.20388705921771522
119.02122873664536,28.91153567329623,0.22736741683696693
178.02088331922948,-0.6156824188363983,0.22930929038207745
272.74608900496247,32.562957770468046,0.20211246228240085
136.23035841995218,-8.145600556338366,0.24136300656979334
158.2383735973836,-16.90621370668757,0.1717435859121924
-256.32512459524384,16.941680686743744,0.2558312197903555
111.49334952933494,7.686644494699521,0.264596672105736
318.1144894859414,17.356743231005645,0.18696965927461967
29.712620138282748,-39.38165072184384,0.17598639324594448
211.85589639493426,26.54649246470093,0.21642895704603463
385.8191293402847,15.25767289224862,0.22550143483716314
4.998420622019379,63.19071171611246,0.2181229315178006
-246.87037593302367,12.040818372181148,0.19452722047500354
-319.66973728372506,-15.435246333457432,0.2842720461447013
213.86257519803172,10.410561103752393,0.20175859791682985
-176.42023731807913,-22.627414715254723,0.17020610050561794
-169.2305575258321,-0.9479711005029056,0.10432308141716146
-493.6745135342667,7.446864060705385,0.24738458702929758
422.32677371991974,4.092846995167287,0.2246881910035647
-19.993114664731152,33.65329704565296,0.23350006092216619
273.0131467423383,-18.912931839039587,0.285146104872982
133.21570744143085,23.05572344570554,0.23711806380100858
216.13522841085606,22.22601020875709,0.18056365533673152
11.569843292181698,-7.83185469458168,0.1911960833974645
-3.1713559677865053,-16.9476651329628,0.18765100628481585
-221.43473153632706,-0.21973894100118413,0.17682961702366032
51.500810057485616,-24.508349246856234,0.1864619056035797
-177.420203877145,-30.487920864897923,0.2193886730200765
170.87489212058338,1.293490227523534,0.18394194433612102
99.18765313208999,1.3750808546132898,0.20851059874012154
-0.8272164460001076,18.09889763838248,0.23995628710739084
-50.41121714666873,-15.959860642193608,0.1587228653961378
246.95445389055527,-31.16236303081812,0.2866629699697067
0.47320020029201476,-4.152135722485833,0.21928721950775748
2.340368812067534,8.956372748933543,0.21217596116356605
-76.28065028528918,-15.591025453583063,0.19355147564689162
-74.80581432372114,-10.5122091606774,0.1757499402569189
-238.97148534707105,-10.447203159521399,0.29338155104824426
288.1778046253842,-5.725263411077195,0.13372794882564099
-378.06716535631324,7.6576718493731715,0.19059230603373667
233.5052679359213,-3.837586629477447,0.17517424061014453
-213.27921508532222,-20.348106479978455,0.10459617045015984
151.36618452527838,-64.01226535417622,0.2703949724978274
-146.36445658923952,33.93241865874573,0.2200740312045211
4.333079826773906,3.2672499904733865,0.23358775440944823
78.22259204450538,-8.221074988468565,0.17591962816933973
176.39298104600712,20.516598918885002,0.30357737462389106
-249.54973816998444,-4.697380536306715,0.15166385443506067
150.40795659873837,3.4731644383411373,0.19171679574955744
42.95907224868403,-37.933451481964774,0.1613223879813626
185.9330017563608,2.071676675606394,0.18850768947783114
224.25576789612302,-3.6862350761234315,0.11092522367045582
62.38885987460912,31.043873090985755,0.23050598024284383
-52.49668162778078,-21.017775629150883,0.2031715611934882
-165.51823330159615,-9.89669188009245,0.18431892388237722
127.3914582550764,16.674730510348333,0.2572235448477662
5.565198449465222,-1.0184877257442373,0.2177444136594412
-129.96310624982272,-28.944507940676072,0.2675978747452648
43.08291991157168,36.01370281704061,0.21000703039205224
-55.75143604337295,27.714938689052286,0.2013763406664802
-23.842243581354605,-30.18681679997231,0.20350596475969032
84.10196683792812,0.9900303375163821,0.20491614312995107
-197.19709112467746,-18.799268491261024,0.2388102455668449
74.0891827267425,-23.237777275774746,0.16189398178761566
354.88733751188454,-42.15078925205144,0.25149389692476587
-123.00606389426345,-20.035145852240724,0.1377607338512889
-308.2326487318058,5.220200586068455,0.12273635139319634
109.77131569444565,-14.675276933928007,0.16352510623923122
-137.53894644076854,15.73347860054249,0.15593513093314076
221.41521881343652,-19.83151499848763,0.24486310624795446
31.15951168920204,-30.435985777633036,0.2367226191339443
-179.5831242310096,1.4670113271991796,0.24141046634551058
-54.18481552202966,28.46041283743995,0.22003795518601488
431.1308875938993,4.8734673821877665,0.2196299711339995
-186.30569865121768,-0.36912762460358484,0.13273970441266092
-412.64935407220423,11.473077388328045,0.2773762197179398
312.0253468467675,-5.389228639701829,0.20383570919051866
257.76468432754444,25.325821219144235,0.17413931121350845
175.34584512760583,-22.813142600659813,0.18470684521841035
-247.84764671371954,-10.430265503430666,0.26174082275318544
-434.8172943853904,-16.038322257451977,0.20585360807850245
165.7501375234286,10.00529375844312,0.21444466346525964
-108.36720013749598,33.519088667968575,0.2125492106026488
-282.77691685740416,9.921736058917423,0.16218215931748775
21.793108839798006,-25.627150118894725,0.11298881552194404
158.21186358079916,-31.41986261403773,0.20225852656104032
-50.21849347091456,-6.910986200649301,0.19799900699051765
140.027136956418,3.400738510072086,0.1921825648183524
332.548921532536,-2.8358388433746047,0.20071762866481951
42.08737478650647,1.0121470410971416,0.19899204692710798
-95.58554808201671,16.012916504029416,0.1915771146240269
352.19574017564514,-8.13600662062685,0.21912422571178
-256.81169337358256,21.33661560832826,0.21052065183471685
-166.88894585115185,17.691000874548077,0.10607267856008618
10.24310279392946,-20.068140597922465,0.156846964853727
107.13680347685546,-0.06203171909559216,0.09379127503662782
163.7178899502973,9.809771017738,0.2919515091078546
-192.1011005924936,9.276832076362213,0.18013928461895928
-428.4119408414038,18.567137621265026,0.19979713107501393
228.47168236961429,1.559345828977756,0.23051999130510226
-135.5626593572103,12.16083585882987,0.11613540191436966
-235.71395090029367,-6.410061616553271,0.15552735449352895
161.23760631053509,-15.8250138932972,0.1903325366461811
-71.77990291806037,-38.48383097211097,0.22383411145224585
-2.476971289446952,5.553624910268951,0.18045776971785676
-318.4938412403406,-20.998709929379544,0.250733666891213
128.08124578024476,-4.885456843135654,0.21744910682500113
-96.02469578056163,5.995291322213742,0.19194707199796465
-296.3829404496161,-8.931705656868163,0.18482210700295665
-163.61021521566593,17.786367879122952,0.1822531523855612
-23.63404909048831,-38.21460624879158,0.2831284787502002
276.5412547840013,-7.144934016416098,0.1905502526692847
188.83942821215075,-8.613342974493658,0.17694052489578538
60.62262926355179,-13.186736622815271,0.08323643095511082
-54.029122734922076,14.665815028154071,0.20231899279873897
341.2301270694957,-23.038969617024062,0.18227903507345317
205.29726060233878,3.3962010232393554,0.19931473641414912
31.4491620112815,17.145409861437773,0.20236136667978016
44.11846437538311,7.71260970593927,0.2658123244515736
-136.68914941293428,9.255286673516064,0.14461798138686732
-7.079591148760077,-16.3830742826426,0.16692121811126448
-270.4096874825423,-0.06079597484090365,0.1535355767726439
224.32530321988438,25.65796386492007,0.22906655320783176
306.6718382994669,-6.338922904123885,0.15261397390353587
-101.28907103449001,-13.741561810158661,0.1458329792432833
225.0769119434526,1.0627313751311434,0.21597648700182337
138.8272229013005,1.0236528902407696,0.18218355409046055
-46.95384822594656,-2.4457787448799184,0.13938162107875432
-140.81326913240554,-6.735835047344917,0.12688150864515146
157.6600629083366,18.629837945578036,0.1367874879507494
36.6146233186176,-9.079807000873059,0.3359428858300889
151.4272529824716,-8.625916033132187,0.20344180782067545
-123.61490317246225,7.304753039484736,0.2636019855340505
27.74747645990207,6.9533156768819175,0.17504819311317305
-109.71428115193113,-21.994581587647765,0.09169096327440372
41.029149259721265,6.639452539953577,0.15612170730733596
-312.6599055742111,-9.412966985727175,0.20965352776650895
-62.06326140644147,50.229894179139826,0.1783169557569017
-279.99576672998904,-9.816105994483355,0.1612744236346675
-54.30914248048045,8.627980366419209,0.1688667800681048
197.66880801279677,28.641613201979034,0.2154226949268395
-131.1095861365905,10.28057917686241,0.23428586398307552
-226.3500164759221,-5.314245314488922,0.19903187200715863
171.47949688472542,-3.2928559403956825,0.059390941031538025
136.9648455904782,13.452561404103863,0.1546246260098228
-106.82690072953523,-33.024962681453346,0.14312833250188114
127.82958943890125,33.90697720659739,0.20891343605335846
594.4717848080418,15.31141685767026,0.221535020050669
35.51779557602746,14.046418695421972,0.15383126041066125
127.81430228640767,-20.54695884960401,0.13408145611425143
72.41731391634212,13.412524807408188,0.20969641381209053
-17.909517504170413,-11.032027140508667,0.22877072674968219
107.7066832920152,-2.6503316617659305,0.11088869626701786
-169.25925813927097,-27.39453292819103,0.15367100029683134
3.987031576573711,-10.796892655103923,0.18535145183204782
-76.6814658353858,-26.959551053940594,0.08631968293029557
201.95542389050502,-24.725691208820972,0.1785040157350563
59.024193877408926,-1.4070637524488063,0.1645698905899479
271.81672824418246,-39.46328668320818,0.19683009682390853
118.16400315295523,-6.087497825008395,0.26903505443747483
291.2549874427398,19.528522391378026,0.2376677848724182
-36.693472335454004,31.5805547196349,0.15030807804254392
88.05891705976993,-5.142030307814096,0.21224755917834331
-72.31141882667744,0.5818736970347518,0.17851143579733056
96.40005330883398,3.437452971940634,0.1955781348366608
192.4538955607612,13.20594157663911,0.11835920964841429
-92.96745021267786,-8.207705514661255,0.22689559120809433
487.3465306939252,7.016315391478117,0.1824896408639778
63.96941994099661,19.03856070738096,0.1541060889518056
200.83107551916834,21.80780416132045,0.240450929251289
196.27116508803607,-19.130731308905546,0.2323991054780547
49.33065068108546,8.468189066102166,0.2552230959740558
-20.498614696999446,12.643459034643108,0.16761226950193622
-135.23678935890052,9.39976137042741,0.30949609054487237
43.241383789710675,-6.236731380654474,0.14892194793932392
100.2431326204859,30.57844467634029,0.3120447123065365
86.7864599798173,14.993288594604637,0.23102311847404425
-24.286264023955965,9.149929510998989,0.1602570311286366
186.36661804295193,0.6011838040622136,0.16716119051723938
412.65084987569026,8.000147256234666,0.15859324680462195
468.28236382496425,27.167985788903803,0.23447211938840065
-160.54033124536073,-2.4967498633629064,0.24209708437559255
294.660422350206,31.004940927918746,0.15285960415343194
66.88006244752708,-39.480478581031264,0.12868034404945733
-48.380783886804664,-8.236891794943023,0.2710618181234148
-423.41315639046434,-11.116298247242586,0.22585219505136533
118.6623764105937,10.706319939456392,0.24480402849318905
-62.4362625072896,-1.2755630035405472,0.18787017686740837
219.17055220295802,5.497356444970219,0.17971697940649764
-250.85011854133646,4.199819368771597,0.22939371411387374
27.258468839852224,19.50617165846531,0.1457460223632815
-70.3727411588007,-35.44818205153939,0.2582200309128965
-59.789061840654554,-8.034146137367943,0.2790208414361153
-245.70752513632854,22.3274622473849,0.2468048551614804
146.75484635971165,11.706145187419377,0.12815548175150004
-25.78855463417048,3.7472057668028413,0.1972104292997811
-179.23668798685085,6.797343528164212,0.1886954058761896
-248.85908858105995,51.95117395947587,0.2382729064799664
-176.974421185797,-24.143695966482696,0.20277987786784338
-329.40855535024065,-30.618786885930497,0.22274036536566494
-1.057850146955904,39.82892193093478,0.18217656121024522
208.45154937735302,27.599096312810264,0.2258021270138424
-108.26994516162858,29.019004886381584,0.24255879814113618
-37.842841317977246,-13.251739886290272,0.17255545978683767
-7.284311208930452,1.2797114176619795,0.2651838801991227
20.941832263071376,16.927275356029547,0.027043045201407295
-12.465674179330454,2.005380858432975,0.19379092247557592
165.69761535928492,8.090823781340417,0.19578554600346354
156.51552147080713,42.45077358968915,0.17980486754890151
-50.50226122179292,8.151949918758229,0.19172798410968722
273.7272129777546,-32.04255724761002,0.09352346526118811
-25.366832458595496,-11.750957100128602,0.1865822464267202
-152.15351320512386,-21.216676376476787,0.21370509339180424
-298.86876649446765,-26.672714981872204,0.28894355706612856
320.95164960510624,53.9479730166136,0.11919851621441567
-162.87541338283572,9.688802645811277,0.2258564651506489
-131.3464551391723,-1.558028815334727,0.14002700063872636
-40.07042784949122,-1.967513133158473,0.2591014407745501
480.3542522170776,10.94232098925807,0.2920687843438759
140.66410751704018,-17.142735852316125,0.2011083124527667
353.3170409132666,4.557992501163503,0.19297574685095892
160.10883919037985,10.091873000549441,0.22945785405983593
150.85279420598525,3.1476390266497245,0.15693380577731092
-52.456149692077815,-7.111783905541503,0.28937816603114597
-182.56833840151774,-24.59937721220635,0.189492767746707
145.44046533776844,-34.88824959765943,0.19410062623372015
135.35453638025274,34.907976537710695,0.17154355349460515
-108.28408047309752,0.3974182273084104,0.19681265798348327
55.32297137072234,-17.819219184662135,0.22520185665205025
138.24211505967173,11.025084499174353,0.22426764281466802
-336.91399023749887,-3.8324401177022516,0.19730376465710947
-504.5898357873919,1.3062126295511187,0.26762108078609936
-336.67217957341416,-42.16247685073935,0.1811237397041548
-204.2155918729132,-27.395197380222104,0.12039343160731705
61.90103904057791,1.3353195512492524,0.17316165622017554
-191.03471113608686,4.368867459972967,0.20416210796068743
29.679009163760494,-10.764824434982241,0.2397138885569401
226.28049506610867,0.3732787743034184,0.2027792712949374
101.98742623100843,-22.52574041643019,0.18157372317373321
-45.42731947027163,10.301909877618948,0.2319484669180057
-59.27376117944825,20.78563006665156,0.10357343281774113
-68.03406163857656,-3.220738420908025,0.13907959617976118
313.59362727659726,9.147020444869922,0.20838792336345072
222.6723035055822,-24.515152945138784,0.1688574211102164
281.1604913466937,-1.0371832029973087,0.16371047942245687
-181.1136189104209,16.219556345307772,0.23991155644710668
-32.32843869097996,-5.953117294808667,0.23815165521902312
62.41902818718151,-17.610164264246716,0.23040415445781715
91.54872648844945,31.60340801821527,0.23731985635920433
-61.78955287703821,22.525360885097726,0.24102866065884712
45.64896062893733,16.546616169234916,0.2727610228239643
-319.5207824672111,-8.155841707497345,0.18723527472743534
151.88693475893155,12.011045921243223,0.2198598794206821
270.52669264055544,-9.463784696803142,0.20398881878409703
-36.43429251005777,-11.835058714913405,0.19347041302648363
-171.93723621048593,24.26223980800261,0.24278694761909173
249.03875290939368,-18.86074605473155,0.2617362633817857
-304.18831436626897,-18.01622268039275,0.2595690410715765
1.3716332615414712,7.309853379214307,0.13189767738927213
-56.3970930892428,25.46459041473829,0.25331761601219666
-178.96777374722384,-13.439689407558088,0.1415702535041242
244.19027747522074,45.16757798232649,0.11545459272895575
23.93322848803234,-3.013117495975334,0.26369944533054945
34.10231054814892,-30.335327754501424,0.24916533464795249
284.800226652464,-6.82170265350338,0.09039600868939834
-31.662998190913605,-10.778030324734972,0.210043133252197
-217.61004881707206,5.719379890746058,0.23802762646407624
234.34135194588367,-10.336708527617018,0.1740917421731899
-34.28103204885131,10.168221401617537,0.2000066647172034
148.15228218835395,-7.004596849279116,0.14776415449612523
256.1907843431731,13.493864612621778,0.19600237028575354
101.12142863155896,13.98911199882534,0.12640478037005032
-375.18352699600956,1.8258529160522374,0.16638955674812242
-191.04921846352562,-11.421783664249164,0.12613312451399472
-274.6538262702792,-4.696417397319489,0.14953181625194886
237.3075324689077,-37.39884662613675,0.26200722738694454
92.62786915042692,-16.817415939981974,0.18118429476011122
-220.0981214039186,21.961384764478574,0.20910467800327873
-332.7891214965594,-23.19530257354222,0.15676577584763235
183.14300908955104,7.850697249023904,0.27832468431690854
165.7974385256245,29.3087427043698,0.26141490060498024
173.84702130315378,28.769351747117,0.21206858418440197
245.8920296931368,30.42769136604675,0.204126503082438
-52.548431247527475,-18.510769220525447,0.309938923422657
-356.4437767121119,10.84296470978172,0.2090935153778481
43.808039349344575,12.38220910188826,0.25914671482034046
112.24071386696677,13.005802996972573,0.16487711626209806
-230.35192040762763,-10.159182184573126,0.12815474982515151
-195.32245250248886,5.703983906569407,0.1952030991994511
307.331430490356,-8.843443290831212,0.2359541357669828
-238.87941364627588,10.04485731956034,0.21139566035229687
24.33471257130057,-16.908873742326275,0.2703786979108695
-146.16885537385315,-12.07038026718565,0.21637742871292667
523.5958982810653,7.078936601092616,0.1158057879816649
14.100197823710467,29.869963963277772,0.13658331522122868
27.484372076072304,28.324423034154258,0.26043093897364555
222.95190406711436,-17.4803365093152,0.17839095708226455
75.64389358226576,-54.154520351428665,0.2835425822352227
-105.23346036164834,8.699331395787972,0.18427671770783274
-65.34997792848645,23.16848827302641,0.19861229028838276
-142.91593967746167,-8.17457908158006,0.22043026840131813
-155.8056340289882,9.220871300929314,0.22709201267195206
325.2603720458561,5.898163061196064,0.20227050497148244
-243.78859085675734,-4.760527318175538,0.19647156445907704
-95.83348201887136,5.276621006920292,0.17861113818421068
171.24723315211662,-4.163045315938693,0.2504184551964468
-142.7232365916237,16.40894611317152,0.2536818185943768
148.42735856700295,5.523111268146717,0.1047286746252916
-178.80077018282861,-5.917830663967121,0.1584279710017077
161.30807731400014,-10.753860261879842,0.1820599988710528
434.0033403249916,9.20119422367825,0.2740374192728308
-62.16612454597128,-13.693781638511243,0.1144652588911382
-93.10665058905764,-9.596735430076423,0.21258250224481318
206.18193665434487,-20.857061411964132,0.2213151955356426
74.2477572420529,-7.647293717163991,0.15757832783288697
7.650245219495446,-32.69668296972041,0.21686700312958856
-92.69115499808727,-20.32435459579696,0.10346407791586172
-43.453988774966966,-12.073860625268725,0.21632052718432102
68.70598235581018,-18.20697062370444,0.1899241996964433
-163.13533059159903,-16.3279969626347,0.1109186753762506
-22.190362623512097,6.152598311530002,0.17673662660475684
67.56935534110447,35.88232817610232,0.14423763431706818
55.30817347246403,4.349071495549936,0.1950969947585417
-202.3394372641564,9.193152657343237,0.20038033785283316
-69.74417211172923,-0.7108064063907378,0.2724294328692179
-241.82394578951022,7.174306044887807,0.25874358578504697
-420.69913688507154,-12.171275951621613,0.16063059893902307
324.24185366112306,-12.58595901865841,0.1007899769534302
-175.4335122846198,-9.283294160345081,0.21070294629903558
-53.1786021128011,14.609130070282259,0.21514107124874057
-195.27907472422697,22.740399434067587,0.25508092777465075
271.2353192074698,-25.156211430517068,0.35053550564717867
-48.29799991990872,24.59002213275625,0.1354722516256835
310.3636494533148,-33.174956533379195,0.19922227286876246
57.50284187669726,3.069295601064106,0.17822975144752845
-43.70617570225032,-3.66517403401187,0.17469810791524504
-193.07421441782688,-5.507615818244879,0.17618982648156734
34.81071265773812,1.1586133664325997,0.25900203599553984
130.56006013994843,-52.261988601357324,0.2003621380942935
139.03112851901722,27.860714696233146,0.15593658546427874
-75.31794262135722,-25.429495919562058,0.28814772138319783
333.2772647145458,-3.216271119267719,0.281779785058873
-35.42016822599272,0.9460115034268746,0.2579266382938092
165.88914376299698,13.454449679198392,0.17546763870339044
266.51300249907706,-22.370176577006276,0.2497244943826874
-129.29513671754947,-37.01218784882461,0.295622744753816
588.0524399199943,-3.650032573064215,0.23261978457228616
-68.74496088130286,21.748275832760974,0.33697457139024395
42.48806298472728,5.3253809699690935,0.14399469981458818
-234.250972526628,34.75793205022483,0.22684633439370908
-418.54508615498327,-5.727235059631099,0.26357086858473405
-124.82351354535982,-42.503538346707444,0.18423869269916943
19.44987428116401,30.314616236443754,0.18308421531501923
405.029025343177,-16.553801338087204,0.22490877511700497
135.14161316588488,-20.66066498230444,0.3026834513871206
-93.19288755938264,-20.950063319176945,0.24450342381334075
-203.8582591559694,5.393114137890822,0.28762747573024944
-188.60014790116884,-4.399334875592759,0.18612388414309075
-206.2557149906724,-11.502247206612818,0.19774329123600473
-191.1331804137766,-15.20740997734486,0.15643432342724345
-228.30031331050563,-14.419361827362557,0.23890059540851852
286.0575945706706,4.242475209936675,0.20568402847397535
121.45038130570799,1.8134767253408646,0.12240602339127235
-151.04057285489506,-7.942937697118887,0.1954077495035452
81.32218184806214,-25.37286246720739,0.1344117425530954
-269.3546058978654,44.872343199152695,0.0081366246937917
139.17566215292055,25.598693952260767,0.3306782026971331
-336.5323014856826,-15.000351074506257,0.1640411165554782
282.69023031458124,-23.19524359714825,0.24302437781667935
31.374103050615144,-26.22850938681146,0.0723465449951187
-13.911064729141737,-20.093044065823584,0.22680903603437189
-71.87602601529562,7.544828165872438,0.21669535740578721
-252.07564493599614,-3.9116847161750536,0.22440516356956203
-22.575134284555922,-15.39268697430728,0.15331570529291372
224.65524890453722,15.401399583014596,0.15627267919226862
206.88293250480712,5.082254974387601,0.3060451393814587
147.03211197316065,17.170039494437027,0.17637494335097031
-270.0802491192347,-14.258359726158162,0.2835326025078946
171.66171719544673,-22.734297509364136,0.19234434965992525
8.03377886960467,10.983502280925673,0.2088711087769146
1.65537750313768,-35.89688152094824,0.18154135661496315
-111.5242601782001,-57.482602058811445,0.2192106146893639
